# 3D point list with one line of data per point:
#   POINT3D_ID, X, Y, Z, R, G, B, ERROR, TRACK[] as (IMAGE_ID, POINT2D_IDX)
# Number of points: 364, mean track length: 3.9597142857142855
3804 -0.62656401695708819 0.81149832692818824 2.7994588259526942 188 189 201 0.42443116318608148 12 2130 10 981 31 1062 13 1798
3803 -0.6437580996790806 0.8109971689052744 2.7650937566455429 63 59 70 0.35458142011348787 12 2129 10 980 31 2132
3802 -4.2711582293475177 1.4680520739761331 1.4213669284982577 35 39 50 0.20068032729540305 12 1131 22 1223 10 938
3801 -1.665168690407604 0.82848807111109379 2.3963807298302444 101 144 175 0.20395884275322751 12 1186 10 925 13 1767
3800 -1.1866567562713606 0.6940472763054687 2.5466687391662322 60 151 183 0.26919072329742039 12 1198 10 921 31 990 13 1742
3799 -4.6570992046123001 1.2929465828648723 1.3642923396680027 63 62 68 0.20908475245262506 22 2190 10 917 13 3230
3798 -4.9252244049150073 1.4333578511573175 2.3126858132218211 73 73 69 0.14034640315997418 12 1099 10 913 31 978
3797 -1.824881132776937 0.74976982411131654 2.3205358457156855 89 165 196 0.57184374363016299 28 3176 10 909 13 3184 22 2853
3796 -4.7558935764132402 1.1623392297597426 1.3628338473524635 79 81 80 0.41028081729380617 22 2836 10 897 13 4102
3795 -4.7638517446589956 1.0718242441132242 1.3927952049749723 35 40 44 0.18712786233074141 22 2140 10 881 13 3189
3794 -4.7638517446589956 1.0718242441132242 1.3927952049749723 35 40 44 0.18712786233074141 22 2139 10 880 13 3188
3793 -2.4256077543043779 0.61628714952818542 1.8654185268442252 108 117 124 0.37102305288808712 12 1074 10 868 31 903 13 3148
3792 -2.392819243873709 0.59229825531216784 1.9299644565331484 6 20 28 0.19274119507263707 12 1072 10 863 31 2020
3791 -1.7416172333019282 0.51048458527507956 2.3352096271285454 219 248 255 0.20024539450775594 12 1091 10 862 31 894
3790 -2.3754691020392036 0.56065941027071875 1.9844527532145051 91 147 161 0.12532541490658636 12 1068 22 1087 10 854 31 2013
3789 -2.6289979291557599 0.53327767879022148 1.7486734662380456 103 158 182 0.17066181576165071 22 2804 10 838 13 4034
3788 -2.8765674745023775 0.54612821463427574 1.6638101199013116 107 160 182 0.076772475734833395 22 2796 10 834 13 4032
3787 -0.74631396488696189 0.29881623859629408 2.6098701372227553 136 153 179 0.22569272487852235 12 2056 10 831 13 1620
3786 -0.78817243570906359 0.29857329774674751 2.6037151916497105 135 151 177 0.13668626507149767 12 1121 10 829 31 866
3785 -0.85100666713381656 0.29705770192110736 2.5808791397254973 142 159 188 0.24060903807270695 12 1108 10 827 31 859
3784 -3.3773971456599026 0.54213664212533907 1.5085889967121975 111 165 189 0.55420243664881397 22 1020 10 824 31 865 23 2332
3783 -2.9568722007186987 0.46479949531465248 1.6299581997202699 60 94 112 0.11346795887884319 12 1036 22 2784 10 815 13 4022 11 985 23 2268 14 1404
3781 -3.5872671252602202 0.51413972286779663 1.415892580515399 68 65 73 0.1808243072485399 22 2083 10 811 13 3121 11 1029 14 1410
3780 -3.6721843335630182 0.51474643684245924 1.3879201874583678 117 136 154 0.29917323192385226 22 2777 10 808 13 4018 32 2259 11 2120 23 3100 14 2527
3779 -3.0393639591176425 0.42316055629471766 1.6022250889549763 63 72 87 0.25206574120022274 22 2776 10 796 13 3098 23 2245
3778 -4.2266595060650118 0.51867600210032039 1.1979568675621288 120 116 118 0.11386659521811344 22 2058 10 792 13 4008 11 1045 23 3116 14 2526
3777 -2.9179289589873489 0.37932722251117579 1.6960395216141824 93 93 103 0.17569970359207032 12 1014 10 786 31 1964
3776 -13.642016327221352 1.3192333539861103 -1.0199391438040661 135 156 184 0.54767657825497595 12 894 10 784
3775 -14.097114656659148 1.3520222407693183 -0.95066124331141288 139 152 177 0.70500792495475717 12 1880 10 783
3774 -4.2940743410498055 0.48685681332510722 1.1698797962578862 38 61 80 0.12808462160015857 22 2042 10 780 13 4002 11 1024 23 3106 14 2518
3773 -3.8691006836376509 0.40752848423178051 1.3196051533829312 71 75 87 0.17312887627480464 12 962 10 763 31 808
3772 -4.6889023365444666 0.45674098151121734 1.0344274129658579 93 139 161 0.17158348147966784 22 2015 10 754 13 3991 11 1011
3771 -3.4878378775508403 0.34241163359517418 1.4905804834658185 107 110 123 0.18379509275791253 12 965 10 747 31 788
3770 -4.7044702002545504 0.43041702992369679 1.0186073622775929 52 66 86 0.074699411767692916 22 2008 10 745 13 3981 11 996 23 3571 14 3323
3769 -2.47972252692233 0.25785615565618158 1.8384900647975695 97 97 117 0.26350761722211152 22 2037 10 743 31 778
3768 -3.0627505778846675 0.30159451478018406 1.6363797189287081 102 101 115 0.080042128823772776 22 2024 10 742 31 783 13 3057
3767 -2.7580948919675805 0.27085444258310631 1.7339704477914657 127 129 144 0.27079204157968156 12 990 10 741 31 775
3766 -3.7042111319441018 0.33910781399902451 1.4252778852156167 120 119 134 0.076458983204920547 22 2013 10 740 13 3055
3765 -5.4915409177742935 0.45134461254339214 0.75144271127854856 46 68 83 0.1706096977411837 22 1991 10 735 13 3974 23 3892
3764 -5.4921015352672899 0.45156950229605647 0.75167056583537195 46 68 83 0.17895450279843322 22 1990 10 734 13 3973 23 3891 14 3316
3763 -5.5556344890797611 0.44978121167596719 0.74569358683985332 41 61 76 0.22132910364599614 12 908 10 732 31 779
3762 -4.7704206918462981 0.38236165455375126 1.0011112839654857 67 81 99 0.17441445235023775 22 1993 10 727 31 770
3761 -4.7683212224741016 0.38360573828322697 1.0005427252991363 67 81 99 0.12448261801876526 22 1992 10 726 11 968
3760 -2.0201006927189571 0.19034114673903652 2.2287377051139332 77 119 151 0.089937095541391843 12 1019 10 723 31 758
3759 -2.5685002852020595 0.2143748644209659 1.7567156924366669 64 62 74 0.47116065390283524 22 3215 10 718 31 754
3758 -3.7555574655599981 0.28572992140173298 1.4084181936530196 117 125 138 0.21862336074454713 22 1989 10 717 13 3019
3757 -3.8709427544353243 0.29011086739658271 1.3621035140890443 107 108 122 0.17901684118359359 22 1986 10 715 13 3018
3756 -5.5226314426446157 0.36355325000154548 0.74789483726035777 57 74 91 0.22461200837803599 22 866 10 704 31 750
3755 -2.406328850838054 -0.039618764426379696 1.8556760637715493 64 63 68 0.13163161131697534 12 879 10 605 31 1868
3754 -3.1503351763390892 -0.025804006980654558 1.5764615344810122 157 160 179 0.19722405458173461 22 2672 10 599 13 2844 11 757
3753 -3.1438095540659576 -0.1802058009127592 1.5610027019402382 108 104 112 0.31441038608557398 22 1818 10 493 13 2780
3752 -3.4606803013255067 -0.2332088700511443 1.4032812124500802 108 115 126 0.38703473965780927 22 2590 10 461 13 2735
3751 -3.1426109411318794 -0.36487867558378401 1.5433471804262093 55 55 65 0.28261092204937782 22 1742 10 351 13 2654
3749 -2.4528363337933219 -0.52319432762033058 2.3636673042636471 40 24 25 0.58570688466667786 12 584 22 2485 10 262
3748 -2.5112917763095903 -0.48845766116605005 1.77059078294005 65 64 71 0.45208329074193832 12 539 10 244 31 312
3747 -2.0329585064094711 -0.55079397289755472 2.388387177613271 27 68 79 0.48670958779120249 22 1642 10 208 13 1031
3746 -1.335527232654393 -0.55215611914855411 2.7210542817830472 86 174 203 0.71552357357206275 12 1687 22 2445 10 170 31 226
3742 -1.1083050230376967 0.3204847574729679 2.5307539982530516 59 137 170 0.76450251555531201 12 3928 10 3406 31 4071 13 5564 22 4135 32 4372 11 4062 23 4419 14 4706
3739 -4.7554273884368303 1.0318027959023293 1.3785485998374449 135 148 156 0.34268825813134174 22 4055 10 3315 13 5506 32 4262 11 3976
3735 -4.72428997974243 1.1540634781991368 1.4268145225407267 34 35 37 0.7678006261385939 22 3882 10 3060 13 5386 32 4016 11 3561
3734 -4.2513982597149012 0.56032764647486344 1.192107333060572 9 11 15 0.50699366271962121 12 2626 10 2894 13 5275 32 4003 11 3546
3730 -1.4622171490160791 -0.026896388827767112 2.580834642633445 97 194 227 0.66758418892442772 12 3778 10 3231 31 3955 32 3980
3727 -0.60600487002150027 0.88788563372295903 2.8425435662992617 180 195 220 0.35403385244036145 12 3798 10 3183 31 3836 13 5141 32 3533
3724 -4.5807806150711325 -0.065801225096313545 1.0824475262666891 119 118 133 0.24115090844440115 22 3474 10 2618 32 3465 11 3234 13 5095
3722 -1.7882541445845472 0.57327716207524126 2.3156806984699778 38 42 61 0.4776426987190901 7 3389 22 3741 13 4908 11 2845
3721 -4.3066826062028403 0.42582577589729353 1.1683926007903789 78 161 187 0.53916458656453981 22 3218 10 2337 13 4884 32 3030
3720 -2.659626423578576 0.36623190971082653 1.7322693625774703 115 113 128 1.8115406491470813 22 3715 10 2892 31 3458 32 3028
3718 -0.72105178366748135 0.1160581640341151 2.90257555261182 120 128 162 0.39863400582185654 12 3688 10 3044 31 3679 13 4880 32 2992 14 1282
3717 -0.9091832034527394 0.11840616017527425 2.7843643884344469 120 120 154 0.56440172259014398 12 3531 10 3043 31 3444 32 2991 11 2749
3711 -3.6976985271095355 0.56186718395485791 1.3926044540012203 11 11 16 0.31332946260062589 22 2781 10 1754 13 4570 32 2263 11 2137
3708 -0.88812356565916362 0.48893249429125812 2.5730748727655333 89 182 223 0.2808304385500382 12 3121 22 3886 10 2689 13 4910 32 2256 11 2819
3706 -4.0714362852389963 0.44063283534124142 1.2460144897752938 87 155 180 0.24359384051229568 22 2750 10 768 13 3996 32 2235 11 990 23 3565 14 2507
3705 -3.5977047593604818 0.41553491057346559 1.4114275095779294 68 65 83 0.14162446305724952 22 3237 10 1724 32 2231 11 966
3704 -1.2752952098160126 -0.013396425242680848 2.6494990664326448 113 183 214 0.40675019901405512 12 3357 10 2879 31 3432 13 4509 32 2081 11 2727
3703 -2.9898503868048083 -0.38147603330455199 1.6011544629850289 89 87 101 0.37492224206472974 12 1686 10 1456 31 423 32 1922 13 3762
3701 2.414521204430006 0.65685501764606036 3.5770895294928065 72 69 83 0.39122094793272755 4 1819 7 868 27 4627 19 2339 3 4786
3684 -4.0522000614125346 1.6321817968366652 0.35754105446375223 40 65 44 0.28732957645833707 12 2072 22 3581 10 1873
3661 -26.902984395567049 -9.1567672715869435 20.026978830303602 124 128 159 0.49355995602776692 12 2274 22 2330 13 3492 32 2611 11 2460
3645 -2.0028886174935447 -0.8632237784693888 2.7381029590881538 68 54 52 0.69452499891447061 12 1576 22 1484
3637 -5.0235742960356378 0.81614316218352567 1.1506778226568606 15 17 16 1.5465511558740173 12 3925 22 4140 10 3414 13 5589 32 4438
3636 -4.7457393579991907 1.0327863553527767 1.3762155854932325 128 144 157 0.22635663770241887 12 3787 22 4056 10 3316
3635 -4.6871108621902282 1.5346833625956529 1.2354695133984741 114 123 145 1.1867994324285405 12 3373 22 3960 10 2918 13 5298 32 3850
3634 -4.7717192751900912 1.0918275894685272 1.280311274043378 44 35 33 0.17749012850917156 12 3530 22 3879 10 3058
3633 -4.7874769599914799 1.0707755758279998 1.2000653250482642 57 49 49 0.44916903896837646 12 3073 22 3877 10 2906 31 3484
3632 -4.7886485195136768 1.0035500092216831 1.2642120689336163 36 27 24 0.18734054478238726 12 3363 22 3876 10 3057
3631 -3.9383122647313584 1.5998280055505496 0.79233101668793859 125 147 184 0.11165958263005615 12 3116 22 3770 10 2419
3630 -4.2608897400714918 1.5740432039508898 1.1648711142882802 131 156 187 0.15814059732232574 12 3108 22 3763 10 2711
3629 -4.5362205618001727 1.5439897147439359 1.2791221657186251 113 131 159 0.15987187497262509 12 3103 22 3761 31 3704
3628 -4.2742033173395031 1.6320498365644631 0.40457820285291829 125 143 179 0.62190315832340548 12 2066 22 3580 10 2418
3627 -4.779926225238766 1.0320449895451589 1.3197923560186346 118 125 128 0.29077799574965502 12 2653 22 3540 10 2374 13 4599
3626 -2.5215999402942137 -0.32823431123315649 1.7218904015320107 88 90 101 0.54354331915857002 12 2447 22 3440 10 2158
3625 -4.6790778258519499 1.270027388030341 1.3643493400382689 143 155 160 0.17904759127806075 12 2668 22 3287 10 2388 13 4612
3624 -4.6790778258519499 1.270027388030341 1.3643493400382689 143 155 160 0.17904759127806075 12 2667 22 3286 10 2389 13 4611
3623 -4.7909096411377465 0.95239783860363569 1.3814612595824127 89 98 100 0.30024710845769359 12 2009 22 3265 10 2369
3622 -6.4855729779726934 0.52528904009135968 0.47209398566175492 31 18 28 0.35462099993837609 12 1881 22 3202 10 2329
3621 -2.6863262576570799 -0.32667527577548255 1.7081486467122196 72 69 83 0.38732084853779369 12 1716 22 3075 10 2167
3620 -3.8429989667005477 1.6065959577643305 0.93334842361491066 69 83 93 0.052775380300652854 12 1171 22 2899 31 1122
3619 -3.8426342447200077 1.5914727890530866 0.9554923825750532 127 150 181 0.25577501023602356 12 1167 22 2895 10 1012 13 4166
3618 -3.808119368955472 1.5907313844079642 1.0935483263702068 129 154 184 0.19744602116340629 12 1172 22 2891 13 4161
3617 -4.7186010388747066 1.2017056795184307 1.2602069458076686 58 50 48 0.30627126972741386 12 1071 22 2843 10 1810 13 4111
3616 -4.7808515526077864 1.0923669258582713 1.3304101561288033 134 136 135 0.17644598024046476 12 1060 22 2821 10 884 31 2042 13 4093
3615 -2.9579422980169849 -0.32697456661126839 1.6134885056926784 72 69 79 0.35933297835914485 12 628 22 2554 10 380
3614 -2.4771089585596955 -0.34833540862250562 1.786004001246231 105 101 116 0.49806065977820013 12 634 22 2544 10 349 31 430
3613 -2.5085423112179268 -0.45482023219645701 1.7435120552005874 47 39 42 0.42555197497346881 12 1660 22 2479 10 1403
3612 -2.5085423112179268 -0.45482023219645701 1.7435120552005874 47 39 42 0.42555197497346881 12 1659 22 2478 10 1404
3611 -3.1705010350542016 -0.5511737268824578 1.5178290587072634 81 84 101 0.49907922451285058 12 508 22 2441 10 217
3610 -2.4980185491929756 -0.54482270499297925 1.7652658232819602 74 70 84 0.53168414059189806 12 514 22 2437 10 1357
3609 -3.7581372138584115 1.5227447150692803 2.0028764551345746 56 60 69 0.11118629126431782 12 1163 22 2229
3608 -4.7232265654912613 1.2155633398299663 1.4106480949580635 162 173 183 0.40219656792972569 12 1073 22 2169 10 908 13 3216 23 2482 14 1576
3607 -4.754403077710375 1.1244440428185962 1.2154152612142275 64 60 60 0.1739732307581133 12 1065 22 2157 10 893 31 2049 13 3201
3606 -5.2509569418767592 1.1834990556195157 1.0933463349800383 47 49 49 0.22388541372387505 12 1058 22 2144 10 890 31 942
3605 -3.2830205737148339 -0.51075115451944575 1.4879293495332853 92 93 112 0.3234615264097665 12 522 22 1650 10 257 31 334 13 956
3604 -3.0727485355649895 -0.53400480198599443 1.5648413459742874 120 123 141 0.34864747604574831 12 517 22 1635 10 230 31 306 13 2547
3602 -1.979321552764606 0.28076524214963483 2.2318467615561572 69 159 192 1.0784472810633285 12 3877 22 4112 13 5538 32 4325 11 4020
3601 -1.3282702447522337 0.88616862388365802 2.5441498970893508 69 53 64 0.95407257574789239 12 3886 22 4091 10 3360 31 4018 13 5510
3600 -1.2292713117950358 0.77352254953656929 2.5383920651523231 66 145 178 0.72959815213162338 12 3852 22 4090 10 3319 31 3967 13 5453
3599 -2.7970750240792861 0.12147649956926278 1.6649710898790304 85 79 93 1.6646444761850188 12 3843 22 4083 10 3349 31 4006
3598 -3.4409282617498844 0.12114182131316105 1.5020209451257993 80 74 80 1.8074170715465516 12 3837 22 4082 10 3347 31 4005
3597 -2.4636346747378197 1.5574631965619601 2.1846464398866319 111 115 127 1.4318103201256152 12 3796 22 4062 10 3260 31 3906 32 4030 13 5518
3596 -2.3360600917334602 1.5418506844754354 2.5854060089289392 85 87 95 1.1504783715092799 12 3853 22 4061 10 3259 31 3902 13 5395 32 3851
3595 -1.7246356922015842 0.66735383321208952 2.3440935959064855 72 158 191 0.28984818582628563 12 3850 22 4058 11 3863
3594 -1.6198722476119523 0.48962879441676205 2.4007139128887194 31 36 56 0.61359969797640279 12 3849 22 4057 10 3312 13 5451 32 4155 11 3856
3593 -1.2765059220596289 0.14094017270583251 2.5701149361638538 99 197 234 0.87704284400450783 12 3879 22 4046 10 3303 13 5367 32 3990 11 3703
3592 -4.8262541903704497 0.43232056829856613 0.97215042109535454 82 152 181 1.1188269082276949 12 3669 22 4045 10 3305
3591 -1.243213317953705 0.07916206644744142 2.6428996473483668 106 88 103 0.3904029763495091 12 3784 22 4044 10 3236 13 5264 32 3985 11 3698
3590 -3.7854686453277355 0.28944480870940725 1.3302648481697865 99 101 116 0.42784577813599278 12 3768 22 4042 10 3238
3589 -4.722487745804405 0.29893037833030423 1.0646103047404183 61 53 56 0.98082928651681534 12 3763 22 4039 10 3301 31 3884
3588 -0.94830126288636152 0.49228799816197255 2.5620700384002824 54 116 150 0.3946184499882035 12 3795 22 4012 10 3176 13 5280 32 3810 11 3535
3587 -2.0184442147399828 0.31363256002752038 2.2283850037350175 60 141 171 0.47055606347885115 12 3683 22 4000 10 3170 31 3809 13 5371
3586 -3.7597678722579713 0.48267139671219961 1.3376443655382204 75 158 192 0.40362224676122338 12 3679 22 3999 10 3242 31 3886
3585 -1.7623664276252702 0.21314435571300724 2.3058522179931464 73 162 194 0.19639914284363363 12 3782 22 3997 10 3166 13 5270 32 3800
3584 -1.374603623671838 0.98025988131937736 2.5235493790195105 72 131 159 0.3302824123879039 12 3551 22 3963 13 5145
3583 -2.1384387248946166 0.86915512719924259 2.2623892953069875 55 138 169 0.46330868838574307 12 3693 22 3959 10 3180
3582 -4.157630933917809 0.48377750439909761 1.2215968827603707 79 152 181 0.10944861019391887 12 3523 22 3948 10 3169 13 5373 11 3858
3581 -1.1377365733962415 0.078824978575032456 2.6940454771388835 69 158 192 0.50558604597573276 12 3682 22 3943 10 3165 32 3476 11 3229 13 4875
3580 -5.6059792040465304 0.31326541565587285 0.76945437940566919 65 65 65 0.13246893532227086 12 3510 22 3941 10 3164
3579 -4.6793608491703687 0.20243602498444394 1.0449646976783338 40 40 41 0.1985712431942098 12 3512 22 3939 10 3038
3578 -4.6862062778126798 0.20160288090233228 1.0467617967151441 40 40 41 0.37965206273396312 12 3511 22 3938 10 3037 31 3801 13 5364
3577 -1.3945209201168702 -0.064882042071604126 2.6303935477418068 128 111 130 0.41709848884252948 12 3677 22 3936 10 3032 13 5111 32 3463 11 3218
3576 -1.3117207126205386 0.98437982585119232 2.5520823664971397 81 128 144 0.41150107449918583 12 3553 22 3892 10 2927 31 3713 13 4945
3574 -3.2970796287527464 0.3135370602072276 1.5638542264825406 138 145 172 0.13285470560863213 12 3355 22 3868 10 2886 31 3452
3573 -3.40662122574855 0.31341773181609667 1.5237479156606819 144 147 164 0.35021982518895106 12 3353 22 3867 10 2885 31 3451 13 5268 32 3991 11 3849 23 4370 14 4632
3572 -1.38175694633732 -0.012995397763853287 2.6037291425067894 126 170 209 0.37949643286253937 12 3526 22 3863 10 2877 31 3429 13 4872 32 2976 11 3222
3571 -1.8026870592582918 0.78464481791503715 2.3343500623455835 68 157 191 0.089976336545792582 7 3600 22 3759 13 4930 32 3075
3570 -1.5011899203614043 0.70026331102625528 2.4418296373252519 68 154 189 0.37866769333146949 12 3118 22 3756 10 2699 13 4926 32 3068 11 2874 23 3097 14 2560
3568 -1.7666678194510881 0.61554870239561321 2.3390826626650223 73 163 197 0.19144197377073663 12 3101 22 3747 10 2687 13 4587 11 2863
3566 -1.4542427214511344 0.47430221162080816 2.4337650111309355 29 36 54 0.16204755539602519 12 3371 22 3735 10 2676 13 4902 32 3039 11 2818
3565 -2.6687933189020634 0.44587764168474986 1.7351650891007406 66 58 70 0.25898942643336226 12 3361 22 3726 10 2896 31 3466 13 5127 32 3504 11 3272
3564 -2.6689244593529931 0.44510263967412639 1.7352196761300587 66 58 70 0.24410756966778857 12 3360 22 3725 10 2895 31 3467
3563 -4.8264906380919532 0.75282629922071498 1.1711402262557005 35 46 54 1.4988844656938689 12 3062 22 3723 10 2897
3562 -2.8970007203612846 0.4542893084896531 1.6474355383649215 87 174 210 0.59515166374614337 12 3069 22 3721 10 2664 31 2700 12 2643 13 5126 32 3509 23 3870 14 3830
3560 -2.8364823916964448 0.43836628363727431 1.6756134761743526 63 70 82 0.34415463512110817 12 3068 22 3718 10 2662 31 3199 13 4896 32 3036 11 2825
3559 -3.087024106205269 0.43230973206714129 1.5842765644999908 66 55 64 0.35132327559511317 12 3063 22 3716 10 2660 31 3461 13 4892 32 3033 11 2823
3558 -3.5286969550499792 0.47319817095303318 1.422378436297782 87 147 176 0.1905525189581643 12 3059 22 3713 10 2659
3557 -3.4715570699503582 0.40212475978439954 1.4734840964540172 66 57 68 0.22748072074421979 12 3056 22 3707 10 2655 13 4889
3556 -3.3583505688094197 0.35643408496800988 1.5455716609507262 93 91 96 0.43084597771453575 12 3055 22 3705 10 2651 31 3188 13 5117 32 3497
3555 -4.2293082219803262 0.33145083176147072 1.2406680703054436 90 91 103 0.18134496725644714 12 2586 22 3702 10 2644
3554 -5.2335436084749487 0.39835931111437861 0.86299198640542607 59 56 65 0.74049734842411152 12 3019 22 3700 10 2884 31 3172 13 5266 32 3499 23 4218 14 4385
3553 -2.9432624705829182 -0.026147975134206757 1.6537751578671824 97 95 107 0.33541593727109531 12 3007 22 3689 10 2629 31 3153
3552 -2.3389334268802684 1.5830203234155344 2.1109526824875919 157 177 212 0.66603132184801217 12 2747 22 3591 10 1902 31 2211
3551 -1.631786955950407 0.84044503076896671 2.4104309868157032 68 147 180 0.2459773214466964 12 2726 22 3574 10 2401 31 2089 13 4105 11 2190
3550 -1.6462660241501619 0.78450145765091817 2.3853837881600186 71 154 191 0.27690341495274684 12 2720 22 3571 10 2396 13 4604 11 2888
3549 -1.5200389903029563 0.68945296181683202 2.4252550865755085 71 160 194 0.26426595924612883 12 3115 22 3565 10 2696 27 4271 6 3635 31 2764 32 2292 11 2156
3548 -1.4652385868613242 0.65589147867833208 2.4416165243815939 67 152 188 0.20030038565669192 12 2714 22 3561 10 2383 31 2058 13 4070 11 2147
3547 -1.7335954508943665 0.68244417148411984 2.3446945432917707 79 165 201 0.24414451242745333 12 2700 22 3557 10 2381 31 2753 13 4591 32 2285 11 2151
3546 -1.6472797170906865 0.61013057093815604 2.3712281853206334 66 157 190 0.59585062602766548 7 3141 22 3552 6 2771 18 1457 13 4057 32 2278 11 2140 23 2296
3544 -1.5144282115158905 0.38775797563696734 2.4175054628540882 189 219 254 0.55166837661567258 12 2671 22 3534 28 3619 3 1593 32 2220
3542 -0.95968914039666764 0.27754336969704396 2.5480017680138833 59 120 151 0.15059800883936822 12 3091 22 3531 10 2354
3541 -2.9283007420756126 0.54276946617919097 1.6458222059145433 80 168 199 0.25163945040876362 12 2008 22 3528 10 2361 31 2001 13 4899 32 3049 11 2849 23 3575 14 3366
3540 -3.4017755398542842 0.5638625345227043 1.4922549161593792 4 6 5 0.29382824226369614 12 2001 22 3526 10 1758 31 1995 13 4573 32 2267 11 2138 23 3111 14 2541
3539 -3.0442660642019832 0.45109164345502223 1.5983009214507469 83 172 207 0.46958188810562734 12 1998 22 3523 10 2349 31 1979 13 4894 32 3037 11 2829 23 3557 14 3348
3538 -3.7602177111185671 0.51890969626815897 1.3566019469349062 76 156 188 0.66561919526930913 12 2631 22 3522 10 2350 31 2701 13 5124 32 3809 11 3543 23 4086 14 4167
3537 -4.3742442144473399 0.50447718445003853 1.1460237575453684 67 147 173 0.47779330209606447 12 2615 22 3519 10 2657 31 2691 13 5120 32 3808 11 3542 23 4310 14 4394
3536 -1.6627467223347436 0.19884285579553859 2.3547218205375495 96 86 96 0.10424237974759969 12 2645 22 3518 10 2332 31 2672 13 3977 11 822
3535 -3.4656130942694343 0.39422870928636694 1.5150559054579327 147 148 166 0.50282092912052379 12 2623 22 3516 10 2340 13 4544 32 2216
3534 -4.6638905590693991 0.36840255581122711 1.1002909904722238 143 145 158 0.42935988071937625 12 2578 22 3509 13 4879 32 3022
3533 -4.6668373739670868 0.36818336873024088 1.1015260389754626 143 145 158 0.45255599292759724 12 2577 22 3508 10 2645 31 3173 13 4878 32 3021 11 2074
3532 -4.3280558540720468 0.32766212934858591 1.1967914234521007 84 85 91 0.54792001595029105 12 2582 22 3507 10 2321 31 2668 13 5115 32 3493 11 3270
3531 -1.2805432935719343 0.043614400759279963 2.634824247203742 84 161 196 0.21370142405602335 12 3066 22 3506 13 3956 32 2123 13 4512 11 1969
3530 -2.4629405247946576 -0.061637197230996289 1.8141916703678198 104 102 113 0.48526527472729963 12 2541 22 3487 10 2259
3529 -1.3850796491594382 -0.50313988094508832 2.6621037468366087 0 28 36 0.62964150200157754 12 2440 22 3413 13 3761 11 1769
3528 -1.3785164720036267 -0.52493537400584145 2.6771772067946054 198 236 255 0.90576396671183412 12 3300 22 3410 10 2544 13 3749 11 430
3527 -2.3466894711313095 1.5659122349458925 2.3286754211933292 98 102 111 0.47286098132716586 12 2124 22 3329 10 1069
3526 -2.3254865354141643 1.5713306593903942 2.4485332601640724 101 106 118 0.95550935096425083 12 1238 22 3327 13 4145
3525 -2.1234234590359682 1.5440402866795244 2.6442897165589554 57 61 71 0.35496263266015954 12 2750 22 3326 10 1892 31 2194 13 4144
3524 -1.2132840765272355 0.97818029315698429 2.5859206547670124 95 108 109 0.36065186718543346 12 2744 22 3313 10 1858 31 2138 13 3248
3523 -1.6220464594072896 0.98532877872452485 2.4422996211080279 87 151 177 0.4877278999943323 12 2735 22 3306 10 1846 31 2796 13 3238
3522 -1.7110210460774002 0.75611171437098434 2.3641560949192422 70 156 191 0.32136133884320539 12 2074 22 3298 27 2832 13 4088
3521 -1.7112624773341127 0.75675707672276893 2.3642699720797506 70 156 191 0.36589807270660329 12 2073 22 3297 27 2831 3 3289 13 4087
3520 -2.1512461417782593 0.85102809316509664 2.2396327417066662 67 142 170 0.17627949393581308 12 2706 22 3295 31 2771
3519 -1.5950092059574634 0.69405701645145212 2.4018176956177304 72 160 196 0.23519471419297475 12 2713 22 3293 10 1812 13 3175 11 1091
3518 -0.97387108431723157 0.49248503221439943 2.5579647261079614 62 115 149 0.076711890824219267 12 2075 22 3289 10 1794 13 1682
3517 -0.97458779911760884 0.493356396343401 2.5613208148800388 62 115 149 0.32174708931742857 12 2076 22 3288 10 1795 31 927 13 1683
3516 -1.6842926755618399 0.58723232912695345 2.3559873523467716 34 52 77 0.13032292919759078 12 2054 22 3284 10 1792 31 2032 13 3150 11 1050
3515 -1.4523474330819066 0.5266235943374229 2.4420171996047637 29 31 54 0.2164213910391542 12 2690 22 3282 10 1789 31 2027 13 4042 11 998 23 1060
3514 -1.8441171498993019 0.60245530303959072 2.3052798479804806 77 167 201 0.33848022913441589 12 2687 22 3281 31 2741 13 4052 11 2131
3513 -2.5170970023461403 0.55744208192979328 1.7913918595586618 85 167 194 0.16578865729547773 12 2015 22 3269 10 1777 31 2011 13 4036 11 1047
3510 -3.3481034076913332 0.56775989383071079 1.5215086996336049 6 9 10 0.36938795292942939 12 2005 22 3259 10 1759 31 1997 32 3054 13 4574 11 2859 23 3109 14 2542
3508 -2.7538407291310723 0.42895438052647467 1.6989810744024714 101 110 131 0.19741898097800395 12 2002 22 3255 10 1745
3507 -3.7518256984459284 0.55647852149221333 1.3656004190596767 3 6 8 0.62323390281847169 12 1997 22 3254 10 1752 31 2704 13 4026 32 3050 11 2136 23 3585 14 3364
3506 -2.9792958225794766 0.4446288386051549 1.6227879972356534 80 171 203 0.35909692868680398 12 2000 22 3253 10 1744 31 1980 13 4566 32 2241 11 2095 23 3050 14 2523
3505 -2.9312129790167201 0.42434905208542478 1.6343831951533865 85 91 110 0.21233332581123662 12 1999 22 3251 10 1740
3504 -3.1469574395045266 0.42500332378365729 1.5665908162493913 57 53 67 0.30236753432394303 12 1995 22 3249 10 1736 31 2693 13 4557 32 2234 11 2083
3503 -3.6973854382915694 0.49631420701713663 1.3734870740322496 96 59 74 0.17178327161989732 12 1984 22 3248 10 1739 31 1978 13 4565 11 2114 14 3356
3502 -3.2654325653099656 0.4189327248453803 1.5229436682265716 71 74 89 0.33356803695060416 12 1006 22 3242 10 1732 13 4553
3501 -4.2742967958041334 0.51455973403159871 1.1757670985303061 97 139 159 0.22166693508139512 12 1963 22 3239 10 1734 31 1970 13 4559 11 1036 23 3584 14 3354
3500 -2.723637596785021 0.31725453459142638 1.7574057843136037 144 146 167 0.13564999845005904 12 1988 22 3238 10 1715 13 4536
3499 -3.753478971701957 0.41311317390692104 1.3520192697357769 66 66 79 0.35220782546639934 12 1957 22 3232 10 1720 31 2685 13 4545 32 2229 11 2085
3498 -2.9791692433922057 0.32357879401888467 1.6695284909744088 148 150 170 0.12673319757744089 12 1974 22 3231 10 1711 31 1952
3497 -3.1250782079879258 0.3239434890870348 1.6285882424684968 138 140 161 0.24261978849824159 12 1970 22 3226 10 1709 31 1947
3496 -3.2024784740954741 0.31703800596916176 1.5890699950170346 133 134 154 0.2709790807387214 12 975 22 3223 10 1704 31 786 13 4527 32 2188 11 2038
3495 -3.3525227396655359 0.32971037947723403 1.5405179535772844 97 95 101 0.163297482973916 12 1955 22 3222 10 1705 31 1943
3494 -3.3525227396655359 0.32971037947723403 1.5405179535772844 97 95 101 0.163297482973916 12 1956 22 3221 10 1706 31 1942
3493 -4.0640266797062097 0.40683000236238798 1.2431984140694656 56 56 68 0.25810528185701709 12 2606 22 3220 10 1710 31 2680 32 2226 13 4535 11 2084
3492 -4.3023413757991804 0.41961278797016111 1.1673179056445899 76 155 187 0.35750324254627353 12 1940 22 3219 10 2336 31 1953
3491 -4.3646447562764221 0.40242197012525915 1.1315669219684936 40 44 51 0.31096183918395609 12 2594 22 3216 10 2333 31 2676 13 4531 32 2224 11 977
3490 -1.2774869993475602 0.082289620510310177 2.6245121418433821 96 159 187 0.37112674198988849 12 2006 22 3211 10 1670
3489 -3.7259000474171438 0.29324782270467331 1.4105443742104538 122 127 146 0.15358841495565212 12 1932 22 3204 10 2322
3488 -4.1815170651753473 0.30155926047908227 1.2638618822608514 122 126 145 0.18201922415886695 12 1911 22 3200 10 2318 31 1930
3487 -4.2857697385926485 0.31286692978440833 1.2244423685882289 117 122 139 0.15294984337222509 12 922 22 3199 10 1679 31 759 13 4519 11 2051
3486 -4.725962145591434 0.3501842034143014 1.0094078824475725 140 140 152 0.22271722251917961 12 1896 22 3198 10 1681 31 2665
3485 -5.8677831787879242 0.36958518305331794 0.63900155585574592 60 64 76 0.18643209337220087 12 1860 22 3192 10 1674
3484 -4.2511571954459901 0.22541821534618928 1.2265592833861669 87 91 94 0.10636768912161694 12 1874 22 3190 31 1918
3483 -4.6887160979850737 0.2331736158525205 0.9984774579344935 82 85 94 0.51986021695143225 12 1858 22 3181 10 2309
3482 -2.6528057893771591 0.0090902744988294662 1.7482660717677705 154 157 182 0.19506076049884766 12 889 22 3166 10 1629 13 2910
3481 -2.6595326189097599 -0.020890683460776577 1.7455094670881168 96 94 108 0.28229031167509239 12 1861 22 3153 10 2275
3480 -3.0849014316780652 -0.033075462550023207 1.5930765168527539 106 104 120 0.22175049194973526 12 1823 22 3145 10 1615
3479 -3.0643396089200121 -0.05838647859265772 1.5928975255355642 129 134 156 0.17405693741013151 12 1815 22 3142 10 1605
3478 -3.3300067875643462 -0.044218378426353441 1.513680288680898 102 99 112 0.24173809646484029 12 1812 22 3141 10 2263 31 1865
3477 -1.3645975018698495 -0.4674411278494065 2.6706302585229809 20 28 33 0.65021241789925199 12 656 22 3048 10 260 31 300 13 2673
3476 -0.83259496741306771 0.99698959931516995 2.7384057208655244 142 153 171 0.59077142526012161 12 1271 22 2911 10 1029 13 1856
3475 -2.5103863383935692 1.5528924946278573 2.3496487447691847 121 133 147 0.36656368809369405 12 1227 22 2904 13 3293
3474 -1.2121068534990789 0.95846169795537139 2.5890188759069344 48 44 47 0.26454734793797047 12 1228 22 2889 13 1835
3473 -1.3671388673233125 0.95778506700629995 2.5489726647258442 53 48 59 0.30332026727718597 12 2114 22 2883 10 1852 13 3237
3472 -1.1799766552360258 0.81158522960228296 2.5662159283113266 113 142 163 0.31491468934604239 12 1211 22 2880 10 935 31 1030 13 1780
3471 -1.4769227386867643 0.81996668402904294 2.4592421232175643 95 85 121 0.20403377770538508 12 1199 22 2877 10 928
3469 -2.1142456962003853 0.95431796940351843 2.2746552622068501 97 156 186 0.24529950143264995 12 2092 22 2870 10 1832 13 3220
3468 -2.1145223400676998 0.95498428606039032 2.2750970097350147 97 156 186 0.29329850207820979 12 2091 22 2869 10 1831 31 2095 13 3221
3467 -2.1247093342395367 0.92005317994338698 2.2989764935739845 71 138 164 0.73037818432946278 12 2081 22 2866 13 4106
3466 -1.4699207058062467 0.69757134279730537 2.4449338200452786 73 155 191 0.1032948058452034 12 2086 22 2856 13 3180
3465 -0.90294070916708247 0.50949279934698977 2.5679806237630762 65 148 186 0.13456738766257995 12 2095 22 2848 13 1700
3464 -1.6672594224089863 0.57004194604878755 2.360092510354328 201 230 251 0.29772632074420308 12 1119 28 3151 22 2842 3 1640 13 1686
3463 -1.719001602985045 0.56165045423908311 2.3441900691425839 194 224 252 0.23964404420030361 7 2197 22 2834 10 872 27 1278
3460 -0.89707947521525311 0.31984886508081112 2.5598907196715768 69 132 163 0.025996488330074865 12 2050 22 2812
3459 -1.4658938618548711 0.42228116249681452 2.4379176771376234 30 42 65 0.71076571932591859 12 2030 22 2810 27 2656 7 2732 3 3114 18 1404 13 3130
3458 -1.7876921551484579 0.47270321532545145 2.3227555974945662 31 37 64 0.27039680770467045 12 2026 22 2809 10 1775 31 2008 13 3135
3457 -4.103387723683281 0.78606560690987071 1.4106188414395759 39 42 54 0.21362176412884271 12 1044 22 2801 10 857 31 2019
3456 -3.1241708095366199 0.44758329237107863 1.5730021857805201 110 133 139 0.19387538445048638 12 1022 22 2778 10 803 13 4013 14 1393
3455 -3.1760549880913063 0.44374933744678691 1.5535282423538876 86 162 191 0.18654425971722674 12 1016 22 2775 10 1737 23 3057 14 2522
3454 -2.7780154191484265 0.33491091730903666 1.7406707177962113 140 141 160 0.23288456647868033 12 1009 22 2761 10 771 13 3993 11 882
3453 -3.6580249605811339 0.41435796890515114 1.3877871792656873 53 53 64 0.25070029269810079 12 1965 22 2759 10 1722 13 3077 23 2259 14 1374
3452 -1.9976538612022698 0.21170887352426823 2.2272352704589502 89 96 125 0.11274682055038229 12 1030 22 2749 10 738 31 767 13 3043
3451 -3.9122255316117247 0.40461058774237302 1.3025292925846654 58 62 75 0.18019901948768086 12 957 22 2746 10 757 31 1957
3450 -3.9122255316117247 0.40461058774237302 1.3025292925846654 58 62 75 0.18019901948768086 12 958 22 2745 10 756 31 1958
3449 -2.0160416051903116 0.19053669591958575 2.2266899495318033 94 116 149 0.16020265855174204 12 1018 22 2742 10 722 31 757 13 1517
3448 -4.0631436252604205 0.38337772808847065 1.2526544022926818 183 197 218 0.82514131201966001 12 946 22 2740 10 746 13 1556
3447 -4.6737081904591147 0.33123412773018324 1.0843443848841987 44 40 44 0.17992350703905394 12 1893 22 2724 10 1678 31 2663 13 3964 11 930
3446 -5.3956487244263576 0.36327152051058259 0.86952190714390165 144 154 166 0.27998290089142092 12 892 22 2722 10 707
3445 -4.6813710733572638 0.26942656311337271 1.052201749766331 68 63 67 0.12764299090841633 12 885 22 2715 10 1668 31 1922 13 3959
3444 -5.6109226200088269 0.33311706297198268 0.71361224726565664 112 120 140 0.32280734042112175 12 863 22 2712 10 1672
3443 -5.549570330242652 0.31095901972681672 0.79504245727582767 49 49 52 0.19834801475693184 12 857 22 2709 10 691 31 734
3442 -4.456613651577916 0.21905487375894511 1.1710068418905031 92 95 106 0.2521915698090102 12 1869 22 2705 10 1664
3441 -4.6657183202291597 0.16519575120875779 1.0708331547563383 43 41 48 0.20078935764555839 12 838 22 2696 10 1652 31 2651 13 3943
3440 -5.5353000097360896 0.16770891127176937 0.74203010509687573 59 52 59 0.28634662213620748 12 795 22 2690 10 658 13 3930
3439 -4.6797479719577151 0.11724881858786897 1.0494023814038123 68 68 78 0.10000901401462015 12 809 22 2687 10 650 31 1904
3438 -2.7476888801456241 -0.011927271039585007 1.7148939360280988 146 147 174 0.18326834263215544 12 866 22 2684 10 1623
3437 -2.5159355514516455 -0.02770619665667216 1.7943228973683309 67 66 73 0.28040301904011705 12 874 22 2681 10 609
3436 -1.4064495609262471 -0.13089807849421833 2.6247381220499131 100 164 191 0.41453593643790088 12 935 22 2671 31 618 13 1357
3435 -3.1473741800472954 -0.051825905983612988 1.5781696544293817 109 106 119 0.21061265686060135 12 1814 22 2661 10 1609 31 1860 13 3889
3434 -12.556664822221505 -1.5081099650485521 25.077614718848604 255 135 151 0.15855288775115514 12 2613 22 2628 31 2599
3433 -2.5315402434850451 1.5812916308483245 2.0564159699790103 136 155 185 0.28771559323525991 12 1229 22 2289 10 1068
3432 -2.502502066100643 1.5411407251250546 2.4822590653769252 95 99 112 0.56694047353698218 12 1223 22 2263 31 1138 13 1924
3431 -1.405765746102672 0.9667651695639784 2.5159214858487373 100 152 185 0.2444444362495449 12 1215 22 2252 13 1831
3430 -1.4136921597055974 0.95599738388337496 2.5290872048587065 58 73 90 0.25790167449376344 12 1213 22 2250 10 963 13 1822
3429 -1.7087185921667409 0.97914208744757147 2.3903926323874232 87 143 167 0.092445612838902319 12 1208 22 2243
3428 -1.4813405846742573 0.86541794928620475 2.4686041132440155 85 81 115 0.21584324804932289 12 1204 22 2234 13 1791
3427 -1.4813405846742573 0.86541794928620475 2.4686041132440155 85 81 115 0.21584324804932289 12 1205 22 2233 13 1790
3426 -1.5630188311913524 0.56891404464209061 2.4057829659849275 203 229 254 0.32471143413766523 28 1288 22 2173 13 1692 28 3148
3425 -1.5630188311913524 0.56891404464209061 2.4057829659849275 203 229 254 0.32471143413766523 28 1289 22 2172 13 1693 28 3149
3424 -1.6233583308855379 0.58113142220828007 2.3853050974618735 199 226 250 0.17347188540267874 12 1127 22 2171 10 878 31 926
3423 -1.8102587623377029 0.51257120781139764 2.3069805904650003 213 240 253 0.30745702225790478 7 2194 28 2418 22 2137
3422 -1.1677681281665249 0.3278780897371083 2.5225132915059345 51 128 156 0.19278893954430601 12 1089 22 2117 10 826
3421 -3.470906174839679 0.51701103114115088 1.4632353224348624 89 155 181 0.35121656365120762 12 1021 22 2091 10 813 31 844 23 1181
3420 -2.5354165539006024 0.29433681676862927 1.8184348179464265 70 68 78 0.29326463406659592 12 1011 22 2047 10 755
3419 -2.5286705550931168 0.23966780540583441 1.8277639440073488 163 169 199 0.081865594979089226 12 1975 22 2022 10 1694 31 1933
3418 -3.4694368867116863 0.28938934707219366 1.4991408500991326 72 69 82 0.16657817244173323 12 948 22 1999 10 720 13 3037
3417 -3.4567007324483123 0.21692330691946157 1.5032835242026441 174 176 198 0.12987978251408605 12 930 22 1968 10 1673 31 1923 13 3004
3416 -3.5000653009015026 0.20579740610465699 1.4155997617534424 175 179 200 0.1898345216953925 12 920 22 1962 10 694
3415 -4.3038199014220337 0.25617576685391652 1.2221299453747532 123 128 140 0.43781338490880445 12 901 22 1958 31 735
3414 -4.6716874910112489 0.20784387161865717 1.0743317284058924 35 33 38 0.18878149173875836 12 858 22 1931 31 722 13 2983
3412 -1.4061532223407314 -0.069048588409373793 2.6138568564449405 115 102 122 0.38501827872501126 12 961 22 1910 10 613 31 652
3411 -2.2218307484006505 -0.74973013010472489 2.411221181876579 66 55 56 0.3953488011773777 12 473 22 1527 31 130 13 880
3409 -2.398363733687682 0.42440327972009856 2.0250111360671483 48 67 69 0.13597020957244885 12 1052 22 1022 10 818 31 846
3408 -2.5230659566105511 0.19127948824231097 1.8090428362786091 63 60 74 0.47335191594898846 12 967 22 911 10 705
3407 -2.5230659566105511 0.19127948824231097 1.8090428362786091 63 60 74 0.47335191594898846 12 968 22 910 10 706
3405 -1.7341645813422002 0.44587757344411638 2.335909259139715 81 85 104 1.1990677001244867 1 4416 2 5162 26 3695 17 2742 12 3792 7 3819 28 4557 22 4054 22 4004 10 3247 27 5062 18 5252 3 5640 6 4858 6 5024 31 3688 13 5380 32 3998 23 3536 14 3347
3403 -1.7087920115123174 0.38323429474743875 2.3365343181467 192 227 254 1.0877083343564731 2 5157 12 3686 10 3172 3 5452 6 4610 13 5276 11 3527
3402 -1.6615070118034692 0.68750943454308144 2.3738560605138819 74 167 200 0.3591248622597219 2 4543 12 3378 26 1369 22 3889 10 2913 27 4620 3 5194 6 4232 31 3494 13 4919 14 3371
3401 -1.7125303538537606 0.5307861211636502 2.3451435407058061 139 148 177 0.47787993194157119 18 3187 12 3092 22 3736 10 2678 3 4749 5 3288 31 2732 11 2837 23 2251 14 1423
3400 -1.773385303211829 0.45970678255317193 2.3246849871857918 38 45 64 0.2671870123829676 2 3444 26 1301 12 3084 22 3731 10 2670 13 4575 32 2245 11 2816 23 2232
3399 -1.8057318571134708 0.8145894145281356 2.3372997914228675 77 153 185 0.13870958236831737 28 4018 12 2082 6 2815
3397 8.8707818120099766 2.0169538620053915 4.5618586665787682 0 0 0 0.048345285663324536 5 555 29 898
3395 1.1973052031164759 0.18139934426745141 3.1459317523953594 125 114 119 0.20524919179659182 4 2483 2 1570 1 1559 27 3562 3 3051
3394 1.9197272319780125 0.76506894632421951 3.4217502180117556 7 9 13 0.4715646762345222 2 4599 26 2921 1 4502 17 2832 27 3780 3 4810
3393 -1.6516885222879834 0.96321944319522934 2.4302534868620818 129 207 243 0.070520246236210948 5 2557 28 3230
3392 -1.9502712246836942 0.89905568114613166 2.2992577939648617 112 128 143 0.34415261454627039 7 3885 28 4610 6 5042
3390 -1.5946195682519018 0.8976534086483634 2.4280688035744751 96 162 196 0.95098224520713259 5 3444 7 3724 28 4510 3 5479 27 4927 6 4645
3389 -1.4288309822193714 0.74311537948034523 2.4656360628850473 97 191 233 0.40873333443992971 5 3438 28 4502 27 4914 18 4844 3 5469 6 4632
3385 -1.3641642083957981 0.040174997388352139 2.5925295319686237 185 237 255 0.08918641080373195 7 3557 28 4487 6 4579
3384 -1.1852128005352609 0.9956253761095103 2.5965407938970908 87 167 201 0.26046419172811369 7 3400 28 4429 27 4935 18 5284 6 4651
3383 -1.5268369504341004 0.90620280162689992 2.4610156890696082 106 171 206 0.26515286988924713 7 3599 28 4425 27 4928 18 5270 3 5480 6 4644
3381 -1.6632371889036481 0.84078841755447598 2.3921531207208293 103 143 181 0.23658520131833391 7 3598 28 4419 27 4923 3 5212 6 4640
3380 -1.4968940229173902 0.618789510120893 2.4337235028271107 102 196 234 0.25165562289062876 7 3385 28 4413 22 3752 27 4610 18 4190 6 4222 32 3065
3377 -1.5774380652346813 0.44261871124050911 2.3955191889219627 65 73 98 0.74046173346518696 7 3588 28 4403 12 3088 27 4239 18 3170 2 3439 26 1296 3 4741 6 4193 13 5131 32 3505 23 3039 14 3353
3375 -1.1120121568022927 0.22893967473385976 2.5748822007285388 90 183 223 0.3472873405362405 5 3081 7 3359 28 4394 6 4168
3373 -1.4411574710693851 0.036685958089493598 2.5667045518670197 192 216 253 0.17985622322446682 7 3560 28 4388 27 4558 3 4687 6 4151
3371 -1.2575964469974545 0.91554739780465488 2.5552675764760533 105 178 211 0.37589424604399624 7 3148 28 4254 3 5220 6 4255
3370 -1.3052779764668898 0.9170674617338862 2.5423596241938293 97 170 199 0.3627742541217393 7 3398 28 4253 6 4259
3369 -1.698618024323189 0.81370080858406202 2.3764719551019144 115 199 236 0.22602151037331639 7 3403 28 4245 6 3659
3368 -1.6994862186090867 0.81403060356744017 2.3764402132674314 115 199 236 0.35959459272293265 7 3402 28 4244 22 3573 12 2723 10 2399 27 3770 18 1547 3 4224 6 3658 13 4605 32 2308 11 2178
3367 -1.5203044413180336 0.68955459828225008 2.4259505935578543 102 195 233 0.26130613913685913 7 3142 28 4238 22 3564 12 3114 10 2695 27 4270 18 4203 17 1411 26 2807 3 4778 6 3634 31 2763 13 4596 32 2291 11 2155
3366 -1.4576673539186729 0.5828536672482767 2.4403980498071567 46 56 74 0.3361437782249887 2 3467 7 3378 28 4233 1 3413 26 2784 12 3376 10 2909 27 4604 18 4183 3 4758 6 4214 31 3483 32 3059 23 3062 5 3283 14 2550
3364 -2.9603048433280752 0.25686731731645629 1.8084712429968539 117 201 239 0.71944681128083354 20 3588 28 4221 6 3578
3362 -1.5676701128316493 0.83777683591163621 2.425356428089938 111 192 231 0.31116796837422533 7 3151 28 4023 3 4232 2 1930 6 3660
3361 -1.4961672671223869 0.74263508785657861 2.4396970145970025 102 197 237 0.23442088882247447 7 3144 28 4009 27 3727 18 1519 3 4193 6 2785
3360 -1.5676591530418329 0.74284470842132222 2.4121571849538288 107 202 238 0.45748508849348923 7 3146 28 4008 22 3569 32 2298 13 4601
3358 -1.6709753952759137 0.74354711242088367 2.3784563644135854 102 198 236 0.7705524504292629 5 3127 28 4005 22 3567 10 2390 27 3725 3 4192 31 2067 11 2161
3357 -1.5644676662225008 0.69738723477740194 2.4124899120427239 102 197 233 0.35018934636180304 5 2872 28 3997 3 4179
3356 -1.6061458345316875 0.61952815978147313 2.3932530265442442 107 204 243 0.27368411532089365 7 2767 28 3992 27 3665 6 2773
3355 -1.7056417027721693 0.58075515036804626 2.3469596657363021 64 79 113 0.5523745253816631 5 3110 7 3140 28 3990 22 3546 12 3099 2 1764 10 2680 27 3652 18 1446 3 4149 6 2769 31 3225 13 4583 32 2272 11 2126 23 3065 14 2547
3354 -1.7046005370344715 0.57970133721139427 2.3458162794873063 64 79 113 0.43944240527333073 5 3109 28 3989 22 3547 18 1445 3 4150 6 2768 13 4584 11 2127
3353 -1.748203041238144 0.57631074630502066 2.3302483720575053 50 64 93 0.11296910207889195 5 3113 28 3988 18 1444 3 3178 6 2767
3352 -1.4191779040847967 0.55400718571610474 2.4571316085673693 164 207 249 0.2629663221013453 7 3134 28 3986 27 3638 3 4139 6 2758
3351 -1.460324413111878 0.55110656872796138 2.4389676795782225 231 253 255 0.44996359733603081 5 2861 7 2752 28 3985 12 3107 2 1750 27 3636 18 3197 3 4138 6 2757 31 2739 13 4581 32 2264 23 1072 14 1429
3350 -1.7141141551239512 0.46615339345848616 2.3415204050233429 166 129 156 0.54939403375468643 7 2753 28 3976 12 2674 22 3270 13 4031 23 1039
3349 -1.5558706636500745 0.41079310564299426 2.405646934533554 233 255 253 0.18208849361736348 5 2853 28 3972 27 2654 18 1399 3 3109 6 2693 11 913
3348 -1.8104365843625776 0.29933138943896637 2.2929294757595438 144 223 255 0.33991510681963033 5 3104 7 2729 28 3967 27 2615 18 1370 3 3086 6 1319
3347 -1.895806368585695 0.29407521256463603 2.2602786073155441 137 225 255 0.36713226133568538 5 3106 28 3966 18 1369 3 3083 6 2655
3346 -1.3815814126439032 0.07685133687937383 2.5725949290425683 66 93 106 0.22570469684459768 7 2679 28 3950 27 2544 18 1283 3 3007 6 2600
3345 -12.152854902970711 -5.8932400290622704 16.787005576491371 22 33 21 0.6884295206535147 26 3983 28 3753 6 4397 3 4997
3344 -2.0640896111193765 0.99020049009859434 2.266013023747063 109 158 186 0.23712877196636209 7 2802 28 3701 6 2860
3343 -1.1445078352382652 1.0059309626986128 2.6175401403957812 67 61 75 0.42275817408669786 7 2779 28 3699 27 3800 18 1710 6 2846 2 2003
3342 -1.2079839215122374 0.96188493676510189 2.5972996747491162 60 66 73 0.38118913902689355 5 2489 7 2219 28 3693 6 1562
3341 -1.5980033397665609 0.92474110420876432 2.4413786844945569 111 185 216 0.36627384479168934 5 2531 7 2785 28 3690 6 2833
3340 -1.6212972411762974 0.92719030474490727 2.435315836924568 112 184 217 0.44992699116954232 7 2786 28 3689 3 3329 27 2892 6 1561
3339 -1.7248889990867327 0.92137318073143537 2.3935155950682958 119 187 224 0.075523561501394804 7 2787 28 3688
3338 -1.6858625400008194 0.82032709572407825 2.3293692193521638 103 192 228 1.9059172068942223 7 2782 28 3682 27 3777
3337 -1.9882956092714199 0.8364766233563713 2.2711023358565785 142 190 215 0.31177614855879393 7 2791 28 3680 3 4230 6 1540
3335 -1.6303635704684409 0.73739950914666719 2.3896714749340715 119 206 246 0.67068232790559812 7 2776 28 3661 12 2080 27 3720 3 3273 3 4188 6 2786
3334 -0.76063911052243571 0.60229497948762267 2.3954530313515994 77 165 201 0.61832437057762479 5 935 28 3660 3 3206
3333 -1.5763166693707438 0.65517222901265348 2.4024818058276773 126 197 235 0.32651224617891483 7 2769 28 3651 12 2707 22 3291 27 2745 3 3223 13 4067 11 1078
3332 -1.4647959765455127 0.65713090838393529 2.4434853741731231 106 195 232 0.17144919859952881 7 2765 28 3647 27 3688 3 3224 6 2775
3331 -1.4650561080761766 0.65642422491058383 2.4424538155791775 106 195 232 0.21699417262292736 7 2766 28 3646 12 2715 22 3562 10 2384 27 3687 3 3225 6 2776 31 2059 13 4071 11 2148
3330 -1.846835818875419 0.56791201603775809 2.2979314701037987 119 215 252 0.63393864354308727 5 3120 7 2770 28 3633 27 2690 18 1438 3 3175 6 1472 11 1037
3329 -1.4997520819334178 0.51570625708375173 2.4269240072653644 49 61 79 0.33596787682799323 5 2858 7 2168 28 3626 27 2672 3 3154
3328 -2.2464595150645867 0.31350444064471616 2.0933388937557194 117 187 216 0.37217428454468732 5 3300 28 3611 3 3091 6 1348
3326 -2.2231429695474518 0.30818096188126698 2.1051450985177351 91 191 223 0.22203471995425308 5 3296 28 3608 3 3089 6 1345
3325 -0.88148693063077621 0.11940190048196307 2.9312394307203666 89 91 107 0.017787345496236028 5 2369 28 3577
3324 -1.3302793933277677 0.030410392692235715 2.6096843727331129 186 235 255 0.19511083337211588 7 2664 28 3572 27 2520 3 1448 6 2588
3323 -1.2865056414317109 -0.48836400048566336 2.7026216760191382 151 209 225 0.34461269254246801 7 2541 28 3458 27 2301 3 1076 6 931
3322 -1.3130476359221361 -0.50598754427306869 2.7023681158536252 8 19 21 0.26265231867629546 7 1806 28 3447 27 3367 3 2759
3321 -14.616004152438142 -5.1213792439806136 19.283249745437374 83 82 78 0.34527061795982933 18 3807 28 3392 6 3256
3320 -1.2413328497748544 0.97772412891216187 2.5839823863063214 124 188 224 0.43596447312775238 5 1904 28 3239 27 1561
3318 -1.6714599848615834 0.9619377083465066 2.4209531980984171 130 208 244 0.24783410712734746 5 2562 28 3228 27 1556
