# 3D point list with one line of data per point:
#   POINT3D_ID, X, Y, Z, R, G, B, ERROR, TRACK[] as (IMAGE_ID, POINT2D_IDX)
# Number of points: 384, mean track length: 3.4895833333333335
2793 -1.7919054264785004 -0.044178685735080242 1.6855700069100763 30 33 51 0.31567190312811172 12 3295 13 1507 15 2407
2792 -15.999161737855625 -2.9123766529536779 12.733159437392011 60 64 69 0.14101590851381476 12 1454 13 1423 15 2425
2791 -10.35616730599239 -2.5465709088651023 10.740084851662928 189 171 91 0.18706800521081576 12 1428 13 1393 16 864
2790 -39.15828437857995 -5.2180608001053592 19.541061053454971 183 180 193 0.2401518253171594 14 916 13 1380 16 757
2789 -39.428346773270682 -5.4396719518664698 20.203604494678345 184 173 191 0.3172589469206773 14 913 13 1373 16 748
2788 -37.70193340405207 -3.5205432373223084 6.343349961256961 37 51 38 0.20134620717354865 12 3166 13 1268 16 2323
2787 -37.70193340405207 -3.5205432373223084 6.343349961256961 37 51 38 0.20134620717354865 12 3167 13 1267 16 2322
2785 -29.113759649250923 -1.8930799700223637 -2.7144492318970346 84 118 69 0.47896273564262221 12 1155 13 1174 15 2166
2784 -25.540053906588025 -0.35848374646474546 -9.2009684398771103 116 126 100 0.22436829226542318 14 2717 13 1134 16 621
2783 -25.540053906588025 -0.35848374646474546 -9.2009684398771103 116 126 100 0.22436829226542318 14 2716 13 1133 16 620
2782 -30.011893328786275 -2.5238007558459419 -2.5645292421896806 75 110 66 0.16806580311230923 12 1096 13 1099 16 534
2781 -28.817799869547194 -2.944912811716609 -1.010313233360971 33 58 36 0.098765710823918593 12 1074 13 1064 16 495
2780 -35.066628673577533 -4.387215228167932 1.8462060415323824 68 79 88 0.16238382417110922 12 3017 13 1048 15 2130
2779 -36.165727631988119 -2.9798753447555972 -6.3563318045971089 74 93 69 0.18450893345914182 12 2971 14 2625 13 1003 16 2182
2778 -25.742775170542366 -1.5496302344094346 -7.4003901282459843 97 111 93 0.15857529275586216 12 2952 13 994 16 491
2777 -31.622222473694638 -7.5670391334716758 15.751957626683291 12 21 13 0.17583725200706324 12 3040 13 983 15 2174
2776 -26.842353442668102 -3.191952681172431 -1.3902902641770911 22 37 22 0.18910634919703054 12 2963 13 968 15 2058
2775 -29.809993570805386 -7.7473912448491955 14.145954638385902 19 31 15 0.17100676469009643 12 990 13 857 15 2110
2774 -27.165582224413917 -7.107891504399162 11.720965619478809 64 75 33 0.12981708669715383 12 932 13 812 16 1999
2773 -28.018255426878071 -7.6489839098819177 12.798178033921349 33 53 23 0.1621548581053712 12 913 13 786 15 2051
2772 -24.508297624782735 -2.4675276160933688 -8.4830537847209335 64 69 46 0.3126853556565613 14 2443 13 773 12 2793 15 1861
2771 -24.091156407386862 -3.2759380677089656 -8.1401851476024873 31 39 15 0.35332097460286965 12 603 13 671 14 134 15 1773
2770 -24.505822697434844 -5.3889225489349899 0.64260822343380042 41 58 36 0.32138939255704752 12 2742 13 640 15 1837
2769 -24.179483355580928 -3.431703163781501 -8.0935492158957185 94 102 82 0.33670729166232133 12 2675 13 639 14 2328 15 1760
2768 -25.459448730883352 -3.1709261099300017 -11.298842367714666 124 131 97 0.32100869583137243 12 2647 13 613 14 2321
2767 -24.904096946978473 -4.0219218329334279 -8.7792712899450898 118 128 102 0.2159738942634282 12 473 13 547 16 62
2765 -3.178974838531476 0.9480333545981301 -0.070070109478195322 103 187 220 0.38758562777054834 9 4179 14 4143 12 4472 5 3539 11 5449 13 3358 15 2483 3 4397
2764 -23.35965454302011 -4.9533469567390265 1.7810763255670059 42 58 35 0.31761033797751792 11 3759 14 3674 9 3127 10 3147 12 2805 15 1887
2763 -27.070879653083768 -8.2271529566398698 -1.3203769550752553 241 242 237 1.17649882196705 11 5992 12 6381 13 6250
2762 -3.549770652518224 2.076057065931268 -0.18791865497134241 25 27 32 1.5135730895094182 14 6086 12 6377 13 6241 15 5055 16 5182
2761 -3.1668252694161141 1.3103645178781795 -0.09046932288650493 113 201 237 0.30560991806353877 14 6071 12 6358 13 6237 15 5035
2760 -25.90119498321706 -8.9954686134141557 0.69490826979346876 252 254 249 1.1209384620647302 11 5948 12 6314 13 6199
2759 -25.712940315147215 -4.9637995545829492 3.243844859651571 22 33 25 0.56346725830178968 10 5277 12 6281 13 6159 15 4993
2758 -2.268164066488878 0.70793840526809471 1.0308169533235798 83 65 71 0.23881824533069618 14 5980 12 6254 13 6063 15 4904 16 4943
2757 -1.8364069345693037 0.39742943511139267 1.8899133994784822 82 60 66 0.11840316705011922 11 5941 12 6253 15 4906
2756 -1.7496908943250187 0.29121210786394114 2.0041544569845029 0 0 0 0.17049267981232177 10 5373 14 6053 11 5939
2755 -1.8076843918021794 -0.22474318523391834 1.7035644612687957 95 77 84 1.1758618688083269 14 6015 12 6233 15 4882 16 4914
2754 -44.437319566370341 -6.9166765452577632 -10.935480701229221 209 214 214 0.25706724701908834 11 5791 12 6215 13 6102 15 4937 14 5861
2753 -3.5717174720243468 1.9101931655926763 -0.47366886265002867 209 230 246 0.3440525776642388 14 5838 12 6182 13 5925 15 4784 16 4774
2752 -2.2706101410078676 0.84385280263805007 1.0070440114452319 113 203 240 0.096878474540022422 14 5982 12 6170 13 5906 15 4771 16 4764
2751 -3.6310144401097961 2.1751695242926115 -0.50235870272155292 121 127 131 0.35769569460650563 14 5842 12 6062 15 4793 13 5930 16 4783
2750 -3.6885206524975658 2.1002421145515004 -0.76955100990338077 107 114 122 0.9444898402811962 14 5711 12 6059 13 5508 15 4622 16 3711
2749 -3.9812885170893324 2.0797942597738626 -1.3849983766482046 68 63 49 0.65612765102989445 14 5700 12 6047 13 5738 15 4610 16 4545 17 3216
2748 -4.0071429113830801 2.0891893600760048 -1.4019502283004917 68 63 49 0.66464704173842759 14 5699 12 6046 13 5737 15 4609 16 4544
2747 -3.6771426495165689 1.7483376818534144 -0.6461931814436459 199 226 245 0.11503286279661004 14 5701 12 6040 13 5732 15 4608
2746 -0.76093624286433881 -0.062488651360879 3.7439054265245901 73 71 84 0.35025271947375064 11 5646 12 6038 13 5911 15 4619 16 4216 16 4548
2745 -22.953768951159468 -4.8894295005968882 2.7456457448713882 21 32 24 0.43025579666613611 10 4969 12 5943 14 5602 13 5821
2744 -1.5516632517817508 1.0279348639448314 2.8527212881664297 197 205 216 0.50354951606781051 14 5748 12 5889 13 5765 15 4426 16 4567
2743 -3.3874536618776516 2.325780810247406 -0.16227483833958989 130 145 178 0.81781757972404934 14 5847 12 5887 15 4418
2742 -3.6140473431824867 2.0576672280091737 -0.58248693159793774 184 196 205 0.22557654883921482 14 5714 12 5877 15 4398
2741 -3.6140473431824867 2.0576672280091737 -0.58248693159793774 184 196 205 0.22557654883921482 14 5713 12 5876 15 4399
2740 -3.6753967504167608 1.9922371563781516 -0.69761023169537861 65 65 71 0.54620162958485108 14 5522 12 5870 13 5126 15 4386 16 3705
2739 -0.83478032900600196 0.021663237750896798 3.6222921273813533 30 38 58 0.19577189055842278 11 5474 12 5862 13 5730 15 4394 16 4218
2738 -3.4947076111531286 0.1591007735615538 -0.14522586709981061 235 255 254 0.21362252698721793 14 5654 12 5785 15 4284
2737 -27.945802701977517 -2.2674712217134525 -2.0823695239938971 57 95 45 0.49183126287102885 9 4953 12 5770 13 5651 15 4516 16 4658 3 4311
2736 -23.310770085857747 -4.2535070175873448 0.34770276601157279 86 101 72 0.16795193767343755 14 5391 12 5748 15 4188
2735 -26.107234115731394 -5.4882355449056561 -3.2298635364720414 165 168 162 0.16518895821727569 11 5542 12 5723 13 5601
2734 -3.6263637154826931 1.8113453794541488 -0.54707890052363073 38 33 29 0.22139402512248271 14 5517 12 5623 13 5119 15 4374 16 3694
2733 -3.6263637154826931 1.8113453794541488 -0.54707890052363073 38 33 29 0.22139402512248271 14 5516 12 5622 13 5120 15 4375 16 3693
2732 -3.7424349159237464 1.7687926312370599 -0.77435110171720145 10 11 6 0.26120237165761351 14 5255 12 5612 13 4481 15 3466 15 4002 16 2788
2731 -1.3568628506007687 0.15474582203420106 2.7499787825658157 116 113 130 0.36711131871933972 11 5183 12 5588 13 5068 15 3997
2730 -3.3472111770861681 1.249186016484265 -0.28089765957713375 125 208 245 0.26874920881005288 14 5510 12 5586 13 5070 16 3666
2729 -1.974842400323769 0.41305147377755846 1.5975484418572088 139 140 158 0.41894481515769733 14 5696 12 5577 15 3983
2728 -2.1243303808759109 -0.011192262650636955 1.1828941944478895 127 124 133 0.41407620973778414 14 5667 12 5530
2727 -25.597642749990293 -3.4099810240920139 -0.97260769838151062 149 150 150 0.29746862775159255 14 5108 12 5456 13 4857 15 3782
2726 -6.510114860386615 3.4724594717238624 -3.6529530632613483 141 160 191 0.89187566256321604 14 5258 12 5234 15 3501 13 1987
2723 -3.338162746802372 1.6988182555874056 -0.16272865547651277 121 117 132 0.18216896178201114 14 4869 12 5229 13 3505 15 3502 16 1469
2722 -0.5582754500339191 -0.11642905226257289 4.1345988054264033 94 194 230 0.17714539548349101 11 4804 12 5220 13 4499 15 3536 16 1493
2721 -0.7608738771781397 0.0067315207598780576 3.7643298184110594 95 192 223 0.1810131265792185 11 4800 12 5214 15 2658 12 4589
2720 -1.8334696769114638 0.42613186781245566 1.8215232943316755 128 126 142 0.57384849225940193 14 5514 12 5169 15 3447 16 2759 13 4421
2719 -3.1103463361579631 0.58005404250099679 0.29318621758174879 131 125 151 0.093571145500005781 14 5237 12 5133 15 3401
2718 -2.2810613101078885 -0.19566974849012397 0.80835822901253673 162 153 161 0.1870278736976875 14 5439 12 5053 15 3289
2717 -2.2600375743874195 -0.19522530259262691 0.81371674398443994 162 153 161 0.32531116771782292 14 5440 12 5052 13 4255
2716 -29.803137914477848 -4.6635634031565765 5.3520405297646674 22 29 21 0.17863147094001985 14 4599 12 5017 10 4012
2715 -23.565966571551879 -4.5701034226164605 2.07312747713538 16 26 18 0.53898813989805738 10 4425 14 5077 12 4942 15 3747 16 3916
2714 -23.213858027767674 -4.6020646950361721 1.8259984749250373 79 94 70 0.41927130781533356 14 5068 12 4932 13 4822 15 3739 16 3909
2713 -23.153455699093708 -5.1513727263583089 1.0536777392941254 109 131 90 0.27709299909629842 9 4706 14 5050 12 4907 13 4793 15 4166 16 3877
2712 -1.6784149243405555 1.0098395466571346 3.0104028284151432 207 222 241 0.41174137480655421 9 2878 12 4663 15 2759 16 1568
2711 -1.6889318410358898 0.82497702756130276 2.9514998465769788 191 201 218 0.32261214681805001 14 5312 12 4642 13 3546 15 2728 16 1542
2710 -3.7575878463489585 2.2479335165751264 -0.7451570648303053 224 241 250 0.1278395201798887 14 4276 12 4631 13 3529 16 1507
2709 -1.3886281228088813 0.56044088754713639 3.0139022209330317 225 240 251 0.13029900967534822 6 2088 12 4626 15 3553
2708 -0.41871446620395825 -0.15461251391791223 4.39767001495178 101 175 206 0.081548453161926271 10 2881 12 4613 13 3509 15 2702
2707 -0.3890748214945422 -0.18467354856786639 4.4600297610681814 116 194 232 0.06561888339535242 10 2876 12 4612 16 1506
2706 -0.42815871839141506 -0.19294185138662431 4.365346676976765 86 121 143 0.17530731125953189 10 3768 12 4604 13 3495
2705 -0.38480269897338237 -0.24256920281587685 4.4414303232328711 86 173 204 0.026397185657673534 10 2848 12 4596 13 3485
2704 -0.38480269897338237 -0.24256920281587685 4.4414303232328711 86 173 204 0.026397185657673534 10 2847 12 4595 13 3484
2703 -3.8081225454173175 1.8989581647070315 -0.89793190120593713 132 134 133 0.18135884850196993 14 4217 12 4581 15 2586
2702 -3.3359738740035101 1.593686524495195 -0.19717275609679125 85 119 136 0.19489324121649515 14 4220 12 4579 13 3479 15 2587
2701 -0.52546492764968478 -0.19002646881413993 4.1812008727328775 91 180 212 0.049465489321803155 10 3729 12 4573 13 3461 15 2653
2700 -0.74347346721002527 -0.05220970919906999 3.7840419330511388 39 49 73 0.12954601168318744 11 4196 12 4569 15 2642
2699 -0.80658652212535842 -0.0081942520002015462 3.6707290545761913 29 34 54 0.20570653536563135 7 1845 12 4568 13 3457 15 2638
2698 -0.85976420506595852 -0.037071832412462591 3.5709149982378636 83 79 95 0.20606271996856729 10 3701 12 4549 15 2609 16 1434
2697 -0.90311143884129896 -0.0080307198950039238 3.4829880732204939 79 74 94 0.20497106605752038 10 3699 12 4545 13 3431 11 3239
2696 -3.0176918397329451 0.54495715423447322 0.43700509136421961 111 184 218 0.1661833549955489 14 4790 12 4436 15 2453
2695 -1.6523756254617035 -0.085087939211631533 2.0873070260059046 117 105 108 0.32135050578120561 14 5240 12 4407 15 2443
2694 -3.387630910882387 0.5749604241354771 -0.13277441095426659 162 226 252 0.15041841608201559 14 5219 12 4403 15 2406
2693 -10.099396430585992 -2.7487250917625685 11.039286282935812 208 193 120 0.20940996925321875 10 3459 12 4362 13 4268 15 3380
2692 -10.049014708088901 -2.7381083902659347 11.005496561256674 208 193 120 0.35266530232573345 10 3458 12 4361 13 4267 15 3379 16 3458
2691 -1.9507210009536813 -0.21016153580097821 1.4232618154786025 137 127 133 0.32739493949279652 14 4714 12 4335 13 3157 15 2336 16 1129
2690 -2.1252101696285552 -0.19432042693693366 1.0655863469416609 129 126 143 0.50009148161623729 9 4071 11 4606 12 4316 15 2306 13 3133
2689 -4.2226597499022995 -0.82705876842723569 2.8047193728100495 58 57 66 0.19197421169243947 10 4076 12 4304 15 2294
2688 -4.2149961982631758 -0.87310901908451544 2.8170533113358918 121 119 133 0.39293554365791072 14 5147 12 4294 13 4234
2686 -36.22759913347884 -2.7565140538365016 -5.6735316604259065 37 54 35 0.26190111546008632 10 3963 11 4544 12 4220 13 4138 15 3156 16 3306
2685 -45.006847303148525 -15.472960493710456 36.879880577943169 84 94 111 0.93074845388259064 10 2257 11 1171 12 4219
2684 -23.004699636015683 -4.3294521916291808 2.2475230731739719 95 120 80 0.26152480203716838 10 3951 12 4163 13 4024 15 3097 16 3213 3 3329
2683 -27.017871316869375 -4.3970152909377198 -0.7627725292121238 49 61 45 0.12996928511631464 10 3928 11 3764 12 4150
2681 -23.083423068030267 -4.9516673399725901 2.0432600733263064 31 42 29 0.40380196068120661 10 3921 11 4501 12 4121 13 3969
2680 -28.897390425610165 -5.5550038453510142 -3.0856545645987929 115 136 97 0.47100180253667395 9 3065 14 3637 12 4067 13 3941 15 1799
2679 -27.308486816635259 -5.699670453645977 -3.7700323975729106 167 168 168 0.32048329224662064 11 4406 12 4025 13 3908 15 3668
2678 -27.308486816635259 -5.699670453645977 -3.7700323975729106 167 168 168 0.32048329224662064 11 4407 12 4024 13 3907 15 3669
2677 -2.879094728255557 2.2615546725443476 0.10643525812135068 151 167 201 0.12478916157759878 14 4942 12 3703 13 2086
2676 -3.6796252465676851 2.2557581236839805 -0.59553070091854521 222 236 249 0.33849624483584356 9 3741 12 3660 13 2028
2675 -3.811113057320366 2.1926893246109529 -0.85387593451152455 214 228 239 0.13028001887881852 14 3282 12 3642 13 2005
2674 -0.43134778424313874 -0.14464177340753553 4.3717082644762906 104 179 207 0.19156101342285062 10 2880 12 3624 13 1986
2673 -3.6999106528411785 1.9919471542726768 -0.78394811324001124 219 235 249 0.16479247303588213 14 4239 12 3616 13 1981 15 2621
2672 -3.6635554980693206 1.9339923294698931 -0.72290430048375554 48 48 51 0.12575969247435104 14 4233 12 3610 13 3506 15 2615
2671 -0.41930393031858598 -0.21632083526180823 4.3773611112194573 97 177 213 0.14549730765795302 10 2849 12 3600 13 1947
2670 -0.41580800242209526 -0.23298286135923024 4.3839897932595964 63 71 92 0.11463676874429378 10 2844 12 3594 13 3477
2669 -0.48161744960391734 -0.2175403327523408 4.2556028869945859 97 177 206 0.41765976777109087 10 2820 12 3577 15 2659 10 3730
2668 -0.48752940443010134 -0.22432371734339912 4.2369493980728032 71 95 121 0.22417601472521098 10 1422 12 3568 13 3454
2667 -3.8059985856210652 1.8087117098717809 -0.95787552022526523 34 35 45 0.20085453499672354 14 4195 12 3556 13 1923
2666 -0.63745591660308887 -0.14607610030656137 3.9625183575263101 79 71 86 0.27276842436175969 11 3261 12 3552 13 3445
2665 -1.1463140126377747 0.19263659655034718 3.0459398452918207 116 202 234 0.12494471322796152 7 1891 12 3549 13 1882
2664 -3.0115915958748998 1.2344843690742446 0.32140096470474389 114 194 228 0.12545990983084127 14 4205 12 3530 13 1875
2663 -3.0407660281755189 1.2490689687018002 0.27526474787303912 119 199 234 0.05768197791608376 14 4204 12 3525 13 1874
2662 -3.3503891488784538 1.3778036541259362 -0.25399104092553837 130 204 239 0.4112793024266479 14 1456 12 3498 13 1845
2661 -3.0307442533557531 1.0916306053991662 0.25511725915279548 239 249 252 0.080521325837231095 14 4177 12 3460 13 1797
2660 -0.92991367773435341 -0.1503257901732413 3.5348794930571814 158 154 173 0.10662707308847381 10 2673 12 3448 13 1758
2659 -3.1070405804157972 0.98816426942590196 0.13581128476527521 224 249 254 0.15871410303825265 14 4160 12 3436 16 1360
2658 -3.2214463855422877 0.64205220408387909 0.090421878647324816 138 179 209 0.083657346059188745 14 4103 12 3364 13 1607
2657 -3.2214463855422877 0.64205220408387909 0.090421878647324816 138 179 209 0.083657346059188745 14 4104 12 3363 13 1608
2656 -2.0418325995573681 0.21658709547828012 1.3723650506389902 156 146 156 0.1603932031920528 10 4217 12 3358 15 2456 13 1595 16 1284
2655 -3.1962251030461974 0.61559187795176618 0.13641649180627424 112 113 138 0.10588653247346742 14 4101 12 3356 13 1602
2654 -28.478742082311541 -3.8870185705257523 4.5388992128692598 65 69 65 0.19977763676312621 14 2690 12 3061 13 2986
2653 -26.512600460545688 -4.117796513690485 3.5368407985191817 24 30 22 0.52211097207957424 10 2142 14 3798 12 2997
2652 -27.952904537166429 -3.2325729464547397 -0.4914971127646548 49 71 48 0.36791937371756056 14 3806 12 2993 13 1018 16 453
2651 -28.516259731445214 -3.3906851528937905 -1.9838294322936441 15 36 15 0.11781126561957551 14 2576 12 2953 15 2044
2650 -31.169571530670428 -8.5770757751510214 15.009192225077248 44 61 41 0.66112511670430463 14 3700 12 2936 13 4015
2649 -25.340047173712229 -3.5440435484964938 -0.78673299064062419 35 47 35 0.28626164369882345 10 3193 14 3766 12 2934
2648 -23.175316433785667 -3.8974355914774117 1.3727571723452452 85 103 67 0.1916554987533686 14 2493 12 2918 10 3206 15 2008 16 2106
2647 -29.333705986184754 -8.7397112478413082 13.150278622277026 42 55 41 0.61570334866507637 10 331 14 2326 12 2857
2646 -27.338324699418123 -4.6563785611002162 -0.76995066714500027 21 28 20 0.32718982993532603 10 3144 14 2429 12 2855
2644 -23.850591140561011 -5.1432677429204157 1.6428260406984867 29 47 31 0.1208309806944472 14 3659 12 2786 13 693 15 1873
2643 -29.579987629557358 -5.7003515104731415 -2.7531465823531498 85 106 70 0.54042222291392072 14 3641 12 2718 13 2661
2642 -23.01217634683524 -3.0061994882638672 -7.6890179992929344 148 162 127 0.40219163633448096 14 3669 12 2717 13 2689 15 1798
2640 -25.60094488975102 -6.8363733622416021 -2.482072535471866 93 108 89 0.21715826567012697 11 3558 12 2537 13 3816
2639 -26.711651587510922 -6.0980197807266592 -6.5643174169702183 248 244 170 0.1861401733743567 11 3503 12 2530 13 2481
2638 -26.960800727241253 -6.3078094233271305 -6.4078649234542837 250 249 191 0.040132355122351276 11 3498 12 2520 13 2468
2637 -26.364073628379423 -6.3233248684593519 -6.3971726389143404 41 42 19 0.18534636221239695 11 4338 12 2505 13 2446
2636 -24.788519650542039 -6.6742423696366915 -3.9810981234888145 25 28 18 0.16629470729422471 11 3507 12 2489 13 2420
2635 -43.879300086816961 -15.25575583082103 6.4747789800065032 188 190 178 0.10051812047089544 11 2362 12 2487 13 2352
2634 -43.879300086816961 -15.25575583082103 6.4747789800065032 188 190 178 0.10051812047089544 11 2361 12 2486 13 2351
2633 -13.877535516931665 -6.9201820633470019 8.2671845820217165 100 136 108 0.48592258101184793 11 2462 12 2463 13 3712
2632 -23.91962382060623 -6.8747673688444024 -3.1974827318483774 46 56 45 0.25833726691033299 11 3502 12 2453 13 202
2631 -1.4515668197046534 1.1494764917763971 3.0609860916393457 113 119 137 0.11780057994634724 10 1723 12 2158 13 2113
2630 -1.657960772658071 1.0280403494609252 2.9412706035529221 81 78 77 0.38094352407568999 14 2052 12 2116 13 2087
2629 -1.6713878653799763 1.0105878331065343 2.9484148917755633 219 220 232 0.22068826455115423 14 4411 12 2112 13 2083
2628 -3.6791388640007794 2.4654679419090071 -0.65859784829893742 141 155 178 0.95484449125104709 14 4912 12 2078 13 4530 15 3558 16 3736 13 5150
2627 -1.5364601414160486 0.78410465361527404 2.7537389460543062 29 30 43 0.33827808461256237 14 4375 12 2064 13 2039
2626 -3.6476411814811294 2.2290013028987685 -0.51173638019598855 209 218 229 0.29154124644711987 14 3321 12 2050
2625 -2.1870390159882613 0.87819211198693936 2.2743777298701811 20 20 21 0.27855067054475413 14 1797 12 2008 13 3516 16 1500
2624 -0.67388916151843803 0.0045893062922054625 3.9505062867841598 34 30 34 0.2817287920131446 10 1527 12 1993 13 1976
2623 -0.58213292839929509 -0.11041123477895828 4.0895040120871711 63 68 89 0.16484223666606787 11 1831 12 1955 13 1946
2622 -0.40514275934777849 -0.24270198575486729 4.4050055887125952 57 66 91 0.066827470588672722 10 1476 12 1949 13 1937
2621 -0.49562739835703479 -0.20678497397417586 4.2315290007329809 102 175 208 0.11651277280498747 10 1447 12 1918 13 1925
2620 -0.39018251414579175 -0.28172020114253821 4.4197037715060326 70 65 82 0.098876105426279226 10 1438 12 1917 13 1918
2619 -0.58690634979811951 -0.15446064329694512 4.0718389819540457 148 98 118 0.10113187580332927 10 1443 12 1910 13 1912
2618 -3.0825577910293545 1.0815614433051244 0.15176832005747837 240 253 255 0.028202723142531388 14 3179 12 1729
2617 -3.7827522418174251 1.2800433472175321 -1.236757493107663 124 186 209 0.15545411123380745 14 3136 12 1663 13 1707
2616 -3.52239130149459 1.0979911349021825 -0.78969311174461121 207 223 237 0.26096000456912666 14 3131 12 1653 15 2470
2615 -0.87029510413777467 -0.40805756165074758 3.5863594142486881 108 105 125 0.082304922717703552 10 2612 12 1622 13 1604
2614 -2.2686410323525781 0.11658509438420762 0.84518366493751207 103 99 100 0.14866556999296718 10 3482 12 1443 13 1482
2613 -2.1037635489787316 0.0060893370052447424 1.1865879378373347 148 139 150 0.079253641211898276 14 4042 12 1432 13 1468
2612 -10.432112494807365 -2.6621782867800396 10.810390128064665 212 190 114 0.082796544562196317 10 850 12 1399 13 1364
2611 -4.2991661668220047 -0.78382332986063308 2.6338586205992423 132 129 146 0.21703166191634518 10 2350 12 1271 13 1289
2610 -27.402843117551502 -3.4319332257886064 4.2969334429621799 99 99 99 0.013544767702919805 9 707 12 1175 13 1164
2609 -29.095975887884347 -4.5245630464342828 4.0533112423555462 19 24 17 0.41643642143981846 10 2143 12 1045 13 2920 15 2122 16 3271
2608 -30.328647432704912 -7.9863694198227897 14.410953382600821 104 123 80 0.4701320343477402 14 2465 12 969 13 843
2607 -35.399792783440894 -3.9369131873487344 -5.2958961114072398 67 89 69 0.27153871315308603 10 3163 14 2539 12 893
2606 -29.61953144178797 -8.2237265912066952 13.590331535632371 33 48 27 0.071777750380853253 14 2394 12 890 15 2034
2605 -27.892038280251239 -6.5187048662048843 7.8148908788295079 39 50 32 0.25711265816603873 10 330 14 2434 12 866 13 784
2604 -22.992311002913464 -5.2276626009566147 1.6462581544963792 45 54 39 0.35087182770865771 14 95 12 690 10 27 13 659
2603 -45.245603686012728 -6.8031514936228064 -8.9858852257302342 124 123 120 0.16608298260324772 11 2406 12 688 13 692 14 2367
2602 -23.292772184520896 -5.3272769402190452 1.4051362394513598 33 44 27 0.14813362528808957 14 2312 12 672 13 641
2600 -26.835545539445476 -5.7164883801663757 -4.2923180954805629 157 162 163 0.20281106890101999 11 2324 12 477 13 498
2599 -24.28254077828521 -6.7956066447848738 -4.0596676203890203 168 177 126 0.087188886664091178 11 2147 12 213 13 206
2598 -27.583836447363502 -10.08348972817639 -0.044090535717643653 82 89 82 0.1081192596104275 11 2155 12 64 13 14
2597 -2.0795813943365444 1.8840079413157305 1.4557293603679677 122 119 131 0.12279018181877946 10 3054 14 3502
2596 -1.6828293948833619 0.94669429460504451 2.9634322979820515 54 60 60 0.87065436220932313 10 5177 14 5997 12 6189 13 5943 15 4800 16 4798
2595 -2.1547968855970341 0.67541088542823469 1.2039449421642048 111 112 132 0.55629643661918549 10 5242 14 5920 12 6029 15 4593
2594 -2.0712901971567699 0.51678587981255075 1.3960313577199601 157 153 170 0.57010318247436109 6 3810 9 5128 14 5916
2593 -1.7897920254096729 -0.32619792990089697 1.7385215180796809 143 132 138 1.0846531029179212 10 5214 14 5891 13 5403 15 4551
2592 -1.8472842662549374 1.833740350506698 1.5558627966703238 98 96 117 1.6502100520544059 9 5062 10 5185 14 5859
2591 -2.2698981625587238 0.62345409463183832 0.99592213784386641 91 66 69 0.27413079664734613 10 5236 14 5832 12 6026
2590 -1.6846663942013931 0.12723937173476413 2.0368095180818844 129 126 143 0.72944966949472512 10 5060 11 5635 14 5831
2589 -1.7377553526136726 0.021800043902965381 1.945694221492321 142 130 136 0.77380048989651129 10 5142 14 5819 15 4341
2588 -2.2778479205255056 -0.19126574586739525 0.72380137652065824 81 67 68 0.72750393094672317 10 5205 14 5798 15 4723
2587 -28.450818808986941 -6.7282108589768139 9.4978056732916656 33 41 40 0.92338892981699949 9 4934 14 5773 12 5954
2586 -1.7243276392989113 0.081668957395998165 1.9089823681863494 107 104 121 0.52269836742749565 10 5056 14 5689
2585 -13.861686866728961 -2.4667057731409781 7.0334680560627261 170 167 192 0.32740968860025466 10 4806 14 5636 12 5504 15 4280 13 4930
2584 -13.861686866728961 -2.4667057731409781 7.0334680560627261 170 167 192 0.32740968860025466 10 4805 14 5635 12 5503 15 4279 13 4929
2583 -1.8160235125353283 1.8405029071083714 1.6167037887704541 249 187 144 0.048719920961937793 10 4958 14 5583
2582 -1.8160235125353283 1.8405029071083714 1.6167037887704541 249 187 144 0.048719920961937793 10 4957 14 5582
2581 -2.2869027841388556 0.32772855559797526 0.98588384617010483 144 130 129 0.57490699612486351 10 4872 14 5503 16 2712
2580 -2.13908252463618 0.035468814963121813 1.132662549424007 129 115 122 0.54946714874761149 11 5418 14 5483 15 3354 13 4303 16 1200
2579 -13.732447788227544 -2.5160363563725134 7.1605640246744739 28 31 38 0.60336314493181431 10 4068 14 5423 15 4281
2578 -1.7336898012124202 1.0192514220159248 3.0145266004458309 30 32 33 0.25014344625611012 10 4341 11 3401 14 5332
2577 -3.6265090657724333 2.1219505215247167 -0.52801191574386186 206 223 238 0.88301406969146023 9 4887 14 5283 12 5635 13 5136 15 4049 16 3720
2576 -3.5872085550788211 2.0312682775953217 -0.47019131245267837 62 49 32 0.31103030670941267 9 5051 14 5278 12 5632 13 5130 15 4044 16 3717
2575 -1.6107376420504689 0.27630276825062472 2.2930951269124771 142 139 153 0.12352149834869011 10 4245 14 5261 12 4511 15 2525
2574 -0.98111163321054984 -0.14360094687140751 0.39278554727016368 162 178 88 0.52387163986928797 11 3783 14 5146
2573 -25.957429593241322 -3.7921402449195218 -0.77982323173686863 36 49 33 0.73555541662790724 9 4728 14 5101 12 5445 15 4500
2572 -26.23775039972346 -5.5707778107722588 6.0675591149261399 30 35 28 1.0661616017690143 9 3920 14 5085 15 3779 12 4961 3 3814
2571 -24.94324587524866 -5.2020687397719083 4.2355461871693132 29 37 29 0.19606888768604044 10 4432 11 4550 14 5079
2570 -29.053516915043289 -7.6224957327903322 8.4993697154731578 62 74 49 0.26516537135432122 10 3954 11 4547 14 5058
2569 -1.9032940104470448 1.7389921581764383 1.8948564303760049 65 63 68 0.68135046341246575 6 1262 10 4383 14 5015
2568 -1.6956008639706077 0.88580616633508769 2.929249971135103 172 185 193 0.36897045068611384 10 2945 14 4962 12 3671 13 3551 15 2734
2567 -1.4077458548365072 0.41814332803560372 2.6024856173758981 7 7 9 0.36453324078818161 10 3759 14 4918 12 3575 13 1930
2566 -1.3167625790091402 0.24055325135848069 2.7199015969629192 83 165 197 0.046477873069865068 10 3684 14 4894 12 3502
2565 -1.7827605770490549 0.45827808354781291 1.9333361192276826 80 67 78 0.42851345098092697 10 4255 14 4850 12 3462 13 3403 16 1399
2564 -1.3638553597486804 -0.24406216738254688 2.6004887688104943 121 118 134 1.0973081560553957 11 3024 14 4792 12 1533
2563 -1.9013267224327599 -0.23515277819409786 1.5232163922809403 120 107 108 0.3701782021688953 10 3450 14 4712 12 3211
2562 -2.0947070014335907 -0.26120891264939411 1.0844754601937274 170 159 162 0.63639269808909527 10 4066 14 4678 12 3152
2561 -4.2327992365546052 -0.82424374897066777 2.8037558888141403 46 46 54 0.51426198027519343 10 4075 14 4666 12 4303 15 2293
2560 -13.481842169316153 -2.5476322705466012 7.5490853631502874 39 43 30 0.4759937551768314 10 2351 14 4656 12 3173 15 2304
2559 -1.5422811575551856 1.113241953782026 2.9747431191185507 203 224 245 0.72179547440623326 10 1707 14 4444 12 2137
2558 -1.6360100042014238 1.0641952125357379 2.9743502413599403 105 105 101 0.4986368468154535 10 1683 14 4424 12 3708 13 3577 16 1575
2557 -2.1961306190097525 0.84128479577620452 2.2050933347741277 44 48 60 0.39661510982703263 10 3784 14 4309 12 1995 13 1983
2556 -1.952197249540633 0.44819883574838965 1.6443212853535605 156 151 169 0.16258414877590166 10 3618 14 4185 12 1706
2555 -2.9006838480706731 0.78082924825105704 0.44786787462577782 91 187 219 0.1813907031280744 9 3561 14 4149 12 1680
2553 -1.2678011949384436 -0.3019933708712722 2.7646923834019534 86 80 92 0.30109077391350952 9 1148 10 1069 14 4115
2551 -2.2198745035746521 0.23789471984869129 1.0193396643727017 146 134 144 0.19861769099729662 9 3499 14 4097 12 1547
2550 -1.7882824435971327 -0.27112077317655503 1.7304388581155905 136 131 138 0.65177819245851376 11 1299 14 3998 12 1359 10 836
2549 -3.4830387603696553 0.098396532483584681 -0.23197684778980637 121 197 226 0.23329331492273447 10 4482 14 3963 12 3185 13 1353
2548 -3.4154913339924717 -0.023237849798893165 -0.094986589632703913 191 238 239 0.40533452257206598 9 3371 10 4040 14 3941
2547 -13.983927469274725 -2.3912757045514361 7.0396188912662998 196 208 232 0.23774878366051094 10 2348 14 3908 12 1295 13 1269
2546 -13.755968887921455 -2.4019644046397843 7.0738928468847435 194 204 227 0.31118141684030365 10 693 14 3906 12 1290
2545 -30.434495159590504 -5.3400790958588971 -3.4724417245701882 73 97 61 0.27126951899916379 11 4445 14 3663 13 2685
2543 -2.0007690935397684 1.9775725096162013 0.98828854023574808 143 163 190 1.2690015295577093 6 1383 10 4390 14 3486
2542 -1.7207757899457239 0.92077048055348454 3.0284990980825048 161 183 206 0.39544895023554977 11 1969 14 3457
2541 -1.5603019699172529 0.89004626096435613 2.769178840188335 199 213 229 0.26212164499232643 10 1635 14 3451 12 2081 13 2050 17 1118
2540 -2.4061930309710817 1.144147281109593 1.8898926777217757 51 47 52 0.25962315680760589 6 1175 10 2913 14 3369
2539 -1.4043913258952612 0.42227263041686047 2.6209989274521233 103 102 108 0.035099529894156281 10 1496 14 3359
2538 -2.2562476658548891 0.86468042881244989 2.148048937114345 43 44 51 0.35190550986004854 10 1533 11 3326 14 3338
2537 -3.6016042833401816 1.943613394895169 -0.60010059401846938 242 254 255 0.2441600646997574 9 3709 14 3262 12 3623 13 1988 3 4268
2536 -1.5972490228193545 0.37599027362062049 2.208349688609748 92 93 114 0.17558042264809401 7 1955 10 1307 14 3252
2535 -1.5274546297284377 0.24219516230486673 2.4895310395746719 125 124 142 0.15984711573559374 10 1266 14 3245
2534 -2.3901807550420795 0.83347649747209918 0.87334165216748272 118 205 239 1.0680247733768089 10 3658 11 1636 14 3203
2533 -13.963353555292187 -2.3300713983399479 7.107945845809688 29 31 44 0.41394476015242282 10 706 14 2829 12 1312
2532 -13.73864514356154 -2.5678073987604391 7.0313967010364697 208 215 235 0.23862169133003822 9 801 10 670 14 2773
2531 -28.496080199522599 -4.1639961391643503 4.0535666654590026 80 79 66 0.21428983147500508 9 2205 14 2645 16 446 13 1049
2530 -28.611840114422801 -4.3361912510925809 3.9516080424395872 86 82 71 0.17345439717144004 9 568 10 430 14 2622 12 1065 16 418
2529 -29.430265226803453 -3.9664861362731196 -2.611597177745292 60 94 44 0.21227130988510634 10 3165 11 3770 14 2501 12 2901 13 2830 15 1969 16 2094
2528 -28.301456429994346 -6.4115312678353789 8.3835531795077181 38 39 25 0.33054042781148929 9 442 14 2464 12 923 13 831
2527 -30.159404811332326 -4.6992790899649446 -3.3107837685551087 70 93 61 0.21219767822026467 9 2001 14 2422 12 769
2526 -36.068491987136596 -5.2356043025967232 -5.7696034046254994 157 164 141 0.32354043447123193 11 2480 14 2421 12 752 13 748 15 1869
2525 -27.11878048647262 -4.7760833564788854 -0.64935066673078023 54 70 47 0.1678118052417108 11 684 14 2411 12 776
2524 -27.18553586998307 -4.7892622948319215 -0.65390764866445794 54 70 47 0.16948307360174736 11 685 14 2410 12 777 13 755
2523 -22.899140111977179 -4.4709007613688163 1.2444229352271687 82 100 72 0.24288412842849746 10 148 11 2577 14 2401
2522 -24.455889152117688 -2.7683043716332643 -8.7005883458436326 33 41 28 0.46417252651524143 9 3074 14 2395 12 2744 15 1825
2521 -24.107273520349029 -4.6740376935816252 0.25489128691617513 27 33 26 0.40992297617603912 11 658 14 2374 10 64 12 751 13 723
2520 -23.560755947343967 -4.9390938846760637 1.6096273358840789 25 40 19 0.18412412967761407 11 707 14 2364 10 97 13 718
2519 -22.593546153139155 -5.1949237072815944 1.0294884091508645 91 106 74 0.19793371273342567 11 576 14 2298 12 647 13 625
2518 -1.8908044388356593 0.66723563805010389 1.736939065465664 29 56 82 0.031962607124061709 11 1755 14 1617
2517 -3.6009071518718367 1.8670153482386525 -0.64180630899270841 106 109 114 0.21656973832194057 9 2863 14 1564 12 1969
2516 -2.2879458857574413 0.59293202072475837 1.0141191846426074 81 71 81 0.32057479114670351 10 2652 14 1408 12 1693
2515 -1.7296422274361642 0.051456989144512286 1.9234795269052785 143 133 137 0.0092340075254862923 10 1125 14 1349
2514 -1.9118025392818556 0.095453472095903019 1.6062805671018401 127 116 120 0.23057330097037473 8 1169 10 1079 14 1308
2513 -1.9088890774340326 0.080659259247452209 1.6069610509183283 148 141 149 0.20920667989351452 8 1156 10 1065 14 1300
2512 -3.0893744305181436 0.54588834204614556 0.31652684576319823 147 143 171 0.40960479225741464 9 2601 14 1284 3 3951
2511 -1.8677677550051059 -0.32381078405128699 0.86592851349953015 9 5 10 0.77706624017330717 10 531 14 737
2510 -36.520566527953918 -3.0204556627260084 -5.5272018196047696 41 59 42 0.28384603854294682 11 836 14 522 10 270
2509 -25.004939264555126 -2.3327199139194672 -6.9838977173850001 106 122 103 0.46194401419364928 9 2039 14 349 12 827 16 377
2508 -23.885369092422408 -10.377486654246452 21.91022598864399 240 254 255 2.6439703570815092 8 2758 10 4001 11 3916
2506 -15.313729402816449 -7.0117176727354122 14.245154175671393 242 252 254 2.8142429946743248 7 2297 11 3897
2504 -1.9046585945862045 0.073229367881127563 1.6090773828218516 148 143 150 0.30460379632480666 8 3920 6 2627 11 4702 9 3492 10 4203 14 4788 12 3335
2503 -2.2189931117880377 0.050473180567831503 0.95807089764270181 81 75 80 0.39546770801317771 6 2600 8 4138 9 3446 10 4130 11 4654 14 4031 12 1416
2502 -3.0204186622027556 1.1225057947006793 0.2800814481185247 37 50 75 0.20039957334918337 5 2864 6 2190 11 3185 9 1469 10 2696 3 3635
2501 -1.8963384899286932 -0.10004624884297048 1.5626367917098603 108 84 84 0.91671975642804937 7 2472 10 919 11 1359 8 3604 9 2507 10 3493 14 1135 14 4044 12 1425
2500 -1.6016185755709587 1.0532316236743464 2.9927692887045612 199 208 230 2.260909711706089 9 5298 10 5378 11 5947
2499 -1.49257367796984 0.38308345033764735 2.477834899724539 104 202 236 0.89615541438584423 9 5228 15 4910 12 6258 16 4954
2498 -1.2449912288458054 -0.037622685553766688 2.9001424772847226 123 128 149 1.9747363080534823 11 5901 12 6292
2497 -2.2819182806237235 0.27846357398374627 1.0070674106979802 109 94 96 0.77689151896013986 10 5291 11 5895 15 4745
2496 -1.7081465166327765 0.84401039807269551 2.9554830854441718 176 185 198 2.3481674255114062 9 5047 10 5326 11 5860
2495 -0.74511587333214724 -0.21213055753012441 3.8211360830659569 30 26 41 0.20216561496992511 6 3685 7 3632 10 5247 11 5845
2494 -2.0783243242586313 0.5139060116401275 1.3972660060868711 142 140 154 0.34856832050445891 10 5239 11 5838 14 5917 12 6163 15 4761
2493 -2.272335747720104 0.45745795521185673 1.0400366941139496 119 114 131 0.4074195758331704 9 5124 10 5229 11 5749 14 5827 12 6022 13 5703 15 4575 16 4522
2492 -3.7073775817999857 0.8450595477903855 -0.58460317723486188 125 116 143 0.16380671089641832 9 5120 11 5742 3 4665
2491 -3.0256854514712401 2.193751681398961 0.44763374537787681 102 117 132 0.24764890275212023 10 5086 11 5669 14 5550
2490 -0.56377245520091102 -0.16185728425270887 4.1094786154692038 118 57 83 1.224838832488486 10 5162 11 5652 16 4225 12 6180
2489 -3.1974568879188281 0.95972905297989763 -0.079476959511053047 87 169 203 0.60022866239681438 6 3881 9 4853 11 5638
2488 -2.9126295123799339 0.53054121822082856 0.64239071731054398 148 197 246 0.24776116167640438 9 4847 10 5141 11 5630
2487 -22.617445048664532 -5.2452005965924728 2.9382684590999624 88 99 65 1.1919243535411113 9 5072 11 5568 12 5939
2486 -23.438191504402315 -5.2467635116141587 2.008148738526816 31 47 33 0.4900901977855483 9 4921 11 5566 12 5741 13 5615 15 4484
2485 -2.5659581775137177 1.9119990586951023 1.3352663257051542 116 130 155 0.42164898880466611 10 4953 11 5509 14 5558
2484 -2.7065868076368416 1.9240695296206196 1.30784291573586 222 138 109 0.2299980744629686 10 5083 11 5507 14 5556
2483 -1.6415888326311057 0.99988037951286168 3.134539701149992 165 180 197 0.36444305970917196 9 4886 11 5503 12 5892 15 4429 13 5766
2482 -1.6647831751594597 0.94647598559910218 3.1548233772965237 56 52 50 0.83327816130870425 9 4662 10 4686 11 5499
2481 -1.5392215457534524 0.84637585428860129 3.0817858945055798 184 193 211 0.29628178515372583 9 4879 10 4944 11 5498
2480 -1.4196624939926481 0.68981900754108383 3.2849195022689996 73 72 67 0.69298662747975437 9 5043 10 4329 11 5492
2479 -0.88331398718433751 0.084247274436675429 3.5330269558517604 84 119 138 0.20994046553377646 6 2659 11 5476 12 5865 13 5734 15 4396 16 4224
2478 -0.88494700686699479 0.031707480781889043 3.5376427563783279 56 60 78 0.44999799123031131 10 4913 11 5470 12 5861 15 4387 13 5728 16 4213
2477 -1.6604281382876043 0.29721800874890053 2.2453398434161511 150 146 160 0.22797385687049096 10 4900 11 5455 14 5704
2476 -3.1211649508298001 0.97128006787124133 0.059783962765876025 210 248 254 0.17757344069497211 9 4610 11 5452
2474 -3.3774666287599939 1.056159249155934 -0.55234249205851893 95 141 168 0.42394254159303041 9 4602 11 5448 3 4496
2473 -2.2658430303751365 0.23690242249184429 0.95394877179320925 127 118 126 0.36482827826262637 9 4834 11 5429 14 5498
2472 -2.2378314656926226 1.8014643468702138 1.7472868271886504 77 73 84 0.32274582468451835 10 4702 11 5261 14 5326
2471 -1.1953623280175036 1.0175909945289143 3.5085047221988521 78 84 96 1.2052399765247825 6 2748 9 4299 11 5254
2470 -1.6298502409400635 0.93636228386764153 3.1970140542537351 45 44 47 0.39761141813248813 9 4280 10 4340 11 5239
2469 -1.7163624643701152 0.9053064774329177 3.030075477534107 170 186 213 0.47748447029024077 9 4272 10 4681 11 5236 14 5741
2468 -3.334563640960849 1.6326405648972613 -0.15734106024770569 65 67 79 0.5357505182041119 9 4262 11 5216 14 3238 12 3596 13 3493
2467 -3.2773573878521223 1.5623939294656275 -0.082063341862832123 94 112 126 0.39458344586371408 9 4258 11 5213 14 4226 12 3589 13 1945 3 4422
2466 -0.92891482230489852 0.11831608738745891 3.4629737928910824 69 144 173 0.22705999574000882 10 4920 11 5210 12 5619 13 5112 15 4042 16 3704
2465 -1.6432099348012656 0.56426074358788292 2.1670413408874611 13 11 14 0.19101277420777871 9 4221 11 5209 12 5204 13 4478 15 3491
2464 -0.71668633477585442 -0.077812214752703696 3.8355673722425481 52 50 63 0.25232133896950371 10 4637 11 5205 12 5614 13 5486 15 4033 16 3696
2463 -0.60068114976499698 -0.17037763369467601 4.0404356519346578 65 61 75 0.25436735921001641 10 4911 11 5201 12 5859 13 5484 15 4393 16 4217
2462 -1.3126356888338324 0.26087525385985788 2.73953157880322 28 35 54 0.15505409268948422 6 2677 11 5196 12 5191 13 4461 15 3475 16 1425
2460 -1.7223015287608519 0.34183461046253372 2.0741836687227546 144 141 155 0.24835856917746671 10 4898 11 5174 14 5698
2459 -3.3353129560979702 1.0455490950090747 -0.39217872878333337 67 154 181 0.33473509620631026 9 4182 11 5160 12 3404 14 4814 13 3357 15 2482
2458 -3.2396464793050006 0.6299291278710345 0.055355390841155067 106 103 124 0.28317045840506699 10 4566 11 5133 14 4099 12 3348
2457 -1.8377038097784606 -0.24925805986614835 1.6038155072076941 155 145 155 0.7314554986476004 9 4519 10 4821 11 5090 14 5658 12 5517 13 4961 15 3919
2456 -2.1924693492159535 -0.040645987080617632 0.98074026746355469 151 146 153 0.33402137809742866 8 4415 10 4518 11 5089 14 4729 12 3231
2455 -2.2179201427890676 -0.13364832537087407 0.90023072184910979 132 129 138 0.9337696462421704 6 3305 8 4278 11 5068
2454 -34.78708490256696 -2.5617153446439511 -6.573638829552082 104 104 102 1.0109006110136336 9 4438 10 4752 11 5007
2453 -25.23547471886733 -6.4234764057182545 5.780392522800831 48 64 54 0.35464898820195456 9 4393 10 4421 11 5003
2452 -23.515195216302956 -5.1548396146628361 2.7042088411323029 17 23 17 0.68441553611187256 9 4397 11 4997 3 3753
2451 -22.931219762863613 -4.7540010462051354 1.4150938113822407 95 123 75 0.48158282200148639 9 3880 11 4993 14 5064 12 4923 15 4181 16 4343
2450 -23.159191914548348 -5.8482637563675031 3.1986992027174064 42 53 35 0.27126996609941928 9 4375 11 4988 12 4903
2449 -30.838638780484157 -4.8313238917195562 -3.07074233673353 16 48 24 0.15116883926939409 9 3881 11 4982 14 5072
2448 -23.217077654705903 -5.4963120697363133 1.8208698595529222 81 102 64 0.38105525396440715 9 4373 11 4980 12 5406 13 4789 15 3702 16 3864
2447 -2.7630368994710794 1.9078333491605435 1.3774134233918645 250 89 50 0.38650375752816157 10 4352 11 4872 14 4952
2446 -2.9432996809538281 1.5338283447697285 2.7333233686733576 56 60 71 0.26968054853839596 10 4333 11 4862 14 5309
2445 -1.2721169342136112 0.66068987077671615 3.8428620722862039 11 11 18 0.55965607193277955 9 4656 10 4336 11 4860
2444 -1.7169379635137247 0.86911513138453089 3.062996734188943 45 43 48 0.12177101109828814 10 4330 11 4852 14 5319
2443 -2.5383768874685151 1.0803652058419695 1.5668329229022087 146 169 203 1.9296096472225515 9 2798 11 4819 12 4610
2442 -0.53816243008667897 -0.097011472715445746 4.1826697070892642 106 164 189 0.37267695434869547 10 4305 11 4815 12 5233 13 4506 15 3548 16 1502
2441 -3.5606811697784666 1.7209471683848114 -0.48680527294331505 193 209 225 0.73572571093256522 9 3676 11 4812 3 4251
2440 -0.94605120440481882 0.15890294758229212 3.4559658738434318 7 6 11 0.50007269906329854 10 3780 11 4810 12 4599 13 4502 15 2661 16 2832
2439 -3.0958818562175998 1.4219778082374004 0.22195960053648389 114 145 180 0.30431341415441221 9 3666 11 4809 3 4247
2438 -0.67055720802409324 -0.043965731780828188 3.9228479204704918 62 63 76 0.45088270194618413 10 4299 11 4803 12 5217 13 4497 15 3527
2437 -0.67074795277048149 -0.04456528123211996 3.9228963705573188 62 63 76 0.46027171657982086 10 4298 11 4802 12 5216 15 3528
2436 -0.50074058595703408 -0.19624068315551443 4.2274990132071721 82 147 176 0.28555197567027113 10 4290 11 4795 12 5210 13 5107
2435 -0.50074058595703408 -0.19624068315551443 4.2274990132071721 82 147 176 0.28555197567027113 10 4289 11 4794 12 5209 13 5106
2434 -0.61578650889139119 -0.12991523978003205 4.0213073628493223 66 53 64 0.27113327827250655 10 4286 11 4792 12 5207 13 4480 7 1818 15 3516 16 1474 17 2859
2433 -0.98168841529428097 0.088429674188679766 3.3497099164463777 89 75 96 0.20272849572058604 10 4282 11 4788 12 5202 13 4467 15 3504 16 2810
2432 -1.2947395529718315 0.23630384436453106 2.7709221641339843 106 194 227 0.37411528532790989 9 4191 11 4772 14 5535 13 3427 15 2579 16 1419
2431 -1.2952310645388783 0.23727822764557638 2.7715503104382488 106 194 227 0.22965665428751117 9 4190 11 4771 14 5534 15 2580
2430 -3.0850408499691517 1.132349705191126 0.16373067193417867 218 253 254 0.46586846782582664 5 3290 11 4754 14 3195 12 1753
2429 -3.3592776756197198 1.354255745047968 -0.48071331647326337 90 166 196 0.69366306299656666 9 3632 11 4753 14 1428 12 1752 3 4410
2428 -3.1028206828785718 1.1140089542171094 0.12197087977267212 120 141 175 0.36029604752760969 5 3288 11 4749
2427 -2.927159554554108 0.79469290204535237 0.39478117451835071 69 164 197 0.388073085923754 9 3559 11 4736 14 3153
2426 -3.1889116608191865 0.71952896216925821 0.031779281306366591 142 213 243 0.63340802993263667 9 4164 10 4215 11 4710 3 4214 5 3429
2425 -2.210383693984781 0.2999857933421094 1.0930058902811837 141 128 134 0.25831797003719414 10 4573 11 4709 14 4798 12 4433 15 2454
2423 -29.082724741376428 -3.6547234217491029 -3.1364328796241168 66 104 50 0.081555962704822946 9 3904 11 4506 3 3740
2422 -23.009211216239109 -4.8664019177601219 1.1648194541243035 31 48 29 0.35906215141506054 9 3870 11 4484 14 4499 12 4108 13 3965 15 3028
2421 -23.427628024030643 -5.7902363487850765 2.9262883971840332 31 38 29 0.48280915701784632 9 3851 11 4483 12 4089
2420 -23.063364769863796 -5.6214212450038126 1.4637315478481816 35 56 37 0.38124305037571765 9 4369 11 4458 12 4891 15 3694 13 4773
2419 -23.198465595780903 -6.273637647280415 2.5161022901431207 48 66 50 0.51467319704361458 9 4355 11 4453 15 3683
2418 -30.950488753946644 -5.2305954988325967 -3.9417214616295539 51 82 40 0.2298614162050733 9 4377 11 4444 14 4507
2417 -2.0587697268889813 1.7460837037190107 1.876522559195775 80 74 83 0.70987762969569013 9 2945 10 4374 11 4318 14 4989
2416 -2.5351362647083211 1.8939430039251481 1.4288609277061228 145 140 150 0.27888064798431761 10 4360 11 4308 14 4380
2415 -3.4529835787950831 1.7721320375662191 1.9445379335638058 69 77 90 0.060143434677721652 10 3819 11 4287
2414 -1.3196346570911226 0.49337847982933614 3.8357755609047874 60 62 75 0.44367411734770562 9 3656 10 2921 11 4265
2413 -3.5418640433417341 1.9363237037738497 -0.38230646462940754 183 198 217 0.95449252582379207 9 2876 11 4256 3 4275
2412 -1.4314127177949223 0.42893433348700477 3.886508854078861 27 28 31 0.27758371172899693 9 3643 10 2904 11 4255
2411 -1.4314127177949223 0.42893433348700477 3.886508854078861 27 28 31 0.27758371172899693 9 3642 10 2905 11 4254
2410 -1.4530997498571607 0.55506193636755041 2.8961940657569842 23 23 33 0.6183439158442311 10 4311 11 4248 14 5303 12 4618 13 4512 15 2686 16 1505
2409 -3.3194706852078908 1.5843290038384594 -0.15169739037905938 126 152 173 0.48387196259740617 9 1544 11 4233 12 1931
2408 -0.71171240849295403 -0.0087481358419303976 3.859034231820285 91 170 204 0.21240030661844322 10 3773 11 4225 12 4598 13 3490 15 2667
2407 -0.49438318877735482 -0.17000182066182504 4.2452416722946085 17 29 51 0.25013696147211761 10 3757 11 4223 12 4594 13 4495 15 2669
2406 -0.74574772711687798 -0.0082497932837223217 3.7874861620230957 58 66 85 0.18966433532956811 7 853 11 4222 12 4587 13 3475 15 2651
2405 -0.52425299897442823 -0.16754618126101922 4.1863290272835982 61 64 88 0.17707775210242219 10 3748 11 4216 12 4583 15 2666
2404 -0.52431281503174387 -0.16805585200111708 4.1859030441459284 61 64 88 0.2335339277211077 10 3749 11 4215 12 4582 13 3474 15 2665 17 2870
2403 -0.76109378117500293 -0.012805788041436394 3.7651206391631948 90 173 205 0.20090707570487593 10 3752 11 4214 12 4580 15 2645
2402 -0.750499063422713 -0.029262810747741189 3.7762828062201605 101 174 207 0.18335407632844039 10 3742 11 4207 12 4576 13 3465
2401 -3.0706706979394731 1.3135254954368567 0.23538272879417732 96 180 215 0.46268027748136814 10 3725 11 4192 3 4005 5 3127
2400 -0.85573632008859046 0.010402640286859319 3.5740409185416628 45 48 65 0.14851384082125269 10 4283 11 4191 12 4562 13 3450 15 2629
1109 5.9004621283805019 -3.0213142113348033 15.571204029699112 33 36 45 0.7695245714859732 1 3853 2 3918 4 3418 5 3382
1108 8.5959197408511123 -4.0123359053120966 19.779856538684378 57 65 76 0.42965658627832626 1 3854 2 4085 4 3414 5 3380
1107 5.5274421326063861 -4.6646099776596071 17.584596487274439 64 57 39 0.22142998625187763 4 3402 5 3363 2 4073
1106 8.1938198865678729 -5.0200446209308014 18.776118670452444 43 43 45 0.64902518762799521 2 3891 5 3360 1 3842 4 3398
1105 -2.9771277118722161 1.1271094500821097 0.31651056323128851 107 201 237 1.6254921145280441 4 2421 5 3287 9 3630 10 4257 11 4765 14 4189 13 1832
1104 -0.074754380866684053 1.3768658083973029 2.950737772502487 166 191 232 0.22960558422833885 2 2839 5 3281 1 2867
1102 -3.1209721662993575 1.1523514021507406 0.090971241201765474 228 255 255 0.39741888813603982 4 2428 5 3111 9 2764 10 3637 11 3169 12 1748 14 3193 3 3987
